61.435 -14.695 43.312
61.434 -14.340 43.298
61.435 -14.250 43.301
61.434 -13.799 43.339
61.440 -13.350 43.339
61.439 -12.901 43.351
61.436 -12.725 43.319
61.447 -12.455 43.355
61.447 -12.005 43.330
61.441 -11.555 43.356
61.442 -11.105 43.361
61.450 -10.659 43.363
61.452 -10.210 43.356
61.454 -9.760 43.363
61.463 -9.315 43.347
61.456 -8.865 43.356
61.451 -8.415 43.369
61.451 -7.970 43.366
61.452 -7.520 43.315
61.455 -7.070 43.373
61.459 -6.625 43.365
61.457 -6.175 43.390
61.455 -5.725 43.393
61.455 -5.276 43.378
61.463 -4.826 43.377
61.469 -4.381 43.340
61.466 -4.205 43.310
61.461 -3.935 43.332
61.460 -3.485 43.358
61.459 -3.039 43.336
61.463 -2.590 43.366
61.464 -2.140 43.377
61.466 -1.690 43.371
61.469 -1.245 43.354
61.471 -0.795 43.354
61.470 -0.345 43.358
61.469 0.105 43.361
61.469 0.375 43.324
61.471 0.465 43.313
61.479 0.555 43.291
61.479 1.000 43.342
61.463 1.450 43.353
61.474 1.900 43.373
61.479 2.345 43.344
61.480 2.795 43.344
61.483 3.244 43.371
61.476 3.690 43.358
61.482 4.140 43.346
61.482 4.586 43.365
61.479 5.035 43.388
61.481 5.481 43.375
61.478 5.931 43.384
61.471 6.380 43.398
61.478 6.830 43.377
61.484 7.275 43.366
61.486 7.725 43.357
61.487 8.175 43.366
61.485 8.620 43.350
61.486 9.070 43.366
61.478 9.520 43.382
61.478 9.970 43.395
61.480 10.415 43.339
61.481 10.865 43.334
61.489 11.315 43.330
61.493 11.765 43.345
61.492 12.214 43.338
61.493 12.660 43.351
61.494 13.110 43.347
61.490 13.556 43.359
61.493 14.005 43.347
61.491 14.455 43.322
61.494 14.900 43.354
61.489 15.350 43.350
61.484 15.799 43.361
61.482 16.245 43.365
61.476 16.691 43.408
61.489 17.140 43.370
61.486 17.595 43.320
61.491 18.044 43.306
61.496 18.491 43.351
61.485 18.935 43.381
61.484 19.385 43.379
61.487 19.834 43.359
61.486 20.280 43.366
61.489 20.730 43.351
61.481 21.180 43.395
61.489 21.626 43.364
61.482 22.075 43.391
61.486 22.525 43.366
61.491 22.975 43.378
61.485 23.425 43.370
61.486 23.870 43.337
61.487 24.320 43.335
61.486 24.769 43.361
61.480 25.211 43.388
61.487 25.664 43.364
61.490 26.115 43.310
61.489 26.560 43.345
61.494 27.009 43.339
61.489 27.459 43.333
61.494 27.901 43.361
61.486 28.354 43.339
61.488 28.801 43.381
61.481 29.251 43.361
61.488 29.700 43.382
61.481 30.146 43.368
61.487 30.597 43.351
61.489 31.045 43.378
61.479 31.490 43.385
61.476 31.940 43.358
61.482 32.389 43.371
61.479 32.840 43.382
61.475 33.285 43.370
61.472 33.730 43.401
61.471 34.180 43.418
61.476 34.630 43.406
61.478 34.897 43.430
61.479 35.080 43.394
61.476 35.529 43.368
61.478 35.975 43.417
61.469 36.421 43.423
61.474 36.869 43.414
61.461 37.315 43.443
61.473 37.769 43.397
61.467 38.219 43.409
61.462 38.665 43.423
61.466 39.111 43.410
61.469 39.560 43.421
61.471 40.011 43.421
61.471 40.454 43.442
61.466 40.904 43.434
61.483 41.359 43.394
61.470 41.800 43.421
61.470 42.250 43.425
61.468 42.699 43.429
61.461 43.140 43.447
61.470 43.594 43.428
61.471 44.045 43.419
61.467 44.491 43.430
61.458 44.932 43.469
61.461 45.380 43.470
61.458 45.830 43.476
61.459 46.280 43.474
61.464 46.726 43.461
61.459 47.176 43.456
61.459 47.626 43.458
61.457 48.074 43.444
61.452 48.521 43.456
61.452 48.969 43.457
61.456 49.415 43.450
61.458 49.864 43.458
61.453 50.310 43.493
61.446 50.751 43.506
61.452 51.204 43.492
61.450 51.655 43.475
61.450 52.105 43.472
61.450 52.555 43.458
61.450 53.003 43.480
61.445 53.445 43.497
61.441 53.899 43.479
61.442 54.345 43.477
61.448 54.794 43.465
61.446 55.239 43.494
61.441 55.681 43.521
61.450 56.136 43.478
61.450 56.585 43.475
61.450 57.030 43.480
61.445 57.475 43.510
61.446 57.925 43.511
61.441 58.366 43.525
61.445 58.820 43.497
61.443 59.271 43.494
61.441 59.710 43.542
61.446 60.165 43.499
61.441 60.606 43.542
61.442 61.061 43.516
61.439 61.510 43.513
61.438 61.955 43.525
61.436 62.405 43.525
61.439 62.853 43.518
61.435 63.295 43.533
61.435 63.745 43.533
61.444 64.194 43.549
61.444 64.640 43.533
61.438 65.086 43.549
61.441 65.536 43.548
61.449 65.989 43.513
61.158 -58.566 43.239
61.264 -27.516 43.359
61.264 -27.073 43.355
61.332 -6.175 43.381
61.339 -2.770 43.301
61.337 -2.590 43.333
61.339 5.930 43.418
61.362 14.005 43.365
61.361 26.114 43.322
61.353 34.897 43.432
61.329 43.138 43.460
61.077 -47.532 43.250
61.111 -34.697 43.316
61.149 -25.011 43.333
61.151 -24.744 43.264
61.228 14.363 43.390
61.214 36.241 43.447
60.879 -58.103 43.311
61.004 -29.317 43.285
61.004 -28.513 43.283
61.005 -28.423 43.279
61.005 -27.165 43.301
61.016 -25.011 43.340
61.020 -24.118 43.283
61.080 -0.346 43.421
61.080 0.104 43.412
61.101 15.530 43.313
61.095 21.626 43.386
61.099 23.866 43.407
61.098 23.956 43.404
61.107 25.481 43.400
61.104 26.111 43.386
61.094 28.347 43.436
61.093 28.437 43.436
61.094 32.656 43.411
60.845 -36.854 43.281
60.853 -35.239 43.276
60.851 -32.814 43.284
60.932 -11.830 43.317
60.938 -9.135 43.303
60.954 -0.975 43.339
60.954 -0.885 43.343
60.961 6.113 43.344
60.961 10.235 43.340
60.976 14.275 43.331
60.974 15.976 43.403
60.976 16.061 43.403
60.964 32.653 43.436
60.601 -70.760 43.264
60.601 -70.311 43.264
60.603 -69.864 43.273
60.603 -69.414 43.271
60.604 -68.965 43.268
60.604 -68.513 43.278
60.602 -68.060 43.303
60.609 -67.619 43.266
60.616 -67.173 43.246
60.614 -66.726 43.262
60.614 -66.275 43.266
60.611 -65.825 43.259
60.614 -65.379 43.272
60.614 -64.929 43.272
60.614 -64.479 43.275
60.618 -64.034 43.263
60.616 -63.581 43.291
60.622 -63.132 43.282
60.624 -62.680 43.290
60.624 -62.234 43.275
60.630 -61.784 43.275
60.632 -61.339 43.277
60.631 -60.888 43.278
60.633 -60.444 43.271
60.627 -59.991 43.287
60.636 -59.545 43.270
60.629 -59.095 43.290
60.631 -58.649 43.287
60.639 -58.201 43.273
60.640 -57.756 43.271
60.639 -57.304 43.292
60.645 -56.851 43.299
60.644 -56.400 43.305
60.643 -55.950 43.327
60.646 -55.504 43.322
60.641 -55.051 43.335
60.647 -54.606 43.299
60.647 -54.157 43.304
60.651 -53.711 43.298
60.657 -53.264 43.282
60.659 -52.816 43.294
60.663 -52.369 43.287
60.655 -51.914 43.320
60.654 -51.469 43.324
60.652 -51.017 43.333
60.662 -50.574 43.303
60.669 -50.129 43.285
60.666 -49.680 43.296
60.666 -49.226 43.318
60.664 -48.776 43.320
60.669 -48.330 43.289
60.678 -47.880 43.289
60.674 -47.435 43.298
60.676 -46.986 43.294
60.679 -46.536 43.285
60.673 -46.083 43.347
60.673 -45.632 43.351
60.680 -45.186 43.335
60.686 -44.744 43.305
60.686 -44.294 43.320
60.688 -43.849 43.315
60.692 -43.400 43.313
60.695 -42.950 43.300
60.692 -42.500 43.315
60.697 -42.050 43.303
60.696 -41.605 43.277
60.694 -41.154 43.322
60.695 -40.971 43.361
60.695 -40.881 43.359
60.690 -40.705 43.318
60.696 -40.255 43.320
60.705 -39.811 43.298
60.704 -39.360 43.307
60.697 -38.910 43.322
60.704 -38.465 43.318
60.706 -38.015 43.315
60.713 -37.566 43.298
60.710 -37.119 43.329
60.714 -36.670 43.300
60.715 -36.221 43.309
60.715 -35.774 43.318
60.717 -35.326 43.311
60.732 -34.880 43.296
60.729 -34.430 43.272
60.732 -33.979 43.303
60.726 -33.530 43.322
60.722 -33.080 43.322
60.726 -32.630 43.337
60.724 -32.182 43.366
60.729 -31.735 43.339
60.729 -31.289 43.325
60.738 -30.836 43.339
60.739 -30.385 43.346
60.739 -29.945 43.299
60.745 -29.495 43.303
60.746 -29.044 43.320
60.737 -28.599 43.320
60.746 -28.149 43.306
60.747 -27.699 43.322
60.745 -27.250 43.368
60.745 -27.070 43.382
60.748 -26.981 43.376
60.756 -26.805 43.318
60.759 -26.355 43.335
60.756 -25.906 43.351
60.755 -25.459 43.353
60.759 -25.187 43.361
60.756 -25.010 43.349
60.759 -24.563 43.296
60.765 -24.115 43.320
60.759 -23.665 43.349
60.760 -23.215 43.347
60.760 -22.765 43.354
60.762 -22.315 43.353
60.768 -22.139 43.317
60.767 -22.050 43.317
60.761 -21.870 43.329
60.779 -21.420 43.351
60.779 -20.971 43.339
60.780 -20.526 43.337
60.781 -20.075 43.338
60.785 -19.630 43.322
60.778 -19.181 43.320
60.781 -18.731 43.334
60.780 -18.285 43.353
60.779 -17.835 43.360
60.783 -17.386 43.351
60.789 -16.936 43.336
60.791 -16.487 43.362
60.788 -16.036 43.351
60.790 -15.590 43.370
60.791 -15.142 43.368
60.788 -14.690 43.380
60.786 -14.249 43.356
60.792 -13.796 43.375
60.794 -13.351 43.355
60.799 -12.905 43.357
60.796 -12.455 43.353
60.804 -12.009 43.366
60.802 -11.830 43.317
60.801 -11.560 43.356
60.796 -11.110 43.358
60.802 -10.660 43.368
60.803 -10.210 43.374
60.805 -9.765 43.384
60.802 -9.315 43.339
60.803 -8.865 43.361
60.809 -8.415 43.341
60.815 -7.970 43.373
60.811 -7.520 43.388
60.819 -7.070 43.354
60.814 -6.625 43.371
60.819 -6.175 43.363
60.808 -5.725 43.404
60.811 -5.275 43.380
60.816 -4.829 43.361
60.814 -4.381 43.337
60.816 -3.935 43.358
60.819 -3.485 43.370
60.819 -3.039 43.375
60.826 -2.590 43.351
60.826 -2.140 43.373
60.822 -1.695 43.342
60.821 -1.245 43.404
60.825 -0.795 43.382
60.815 -0.350 43.374
60.822 0.100 43.363
60.818 0.550 43.395
60.830 1.000 43.358
60.829 1.180 43.324
60.831 1.449 43.358
60.831 1.895 43.361
60.837 2.345 43.341
60.834 2.795 43.356
60.833 3.244 43.385
60.838 3.690 43.358
60.827 4.140 43.395
60.829 4.586 43.393
60.831 5.031 43.409
60.833 5.484 43.361
60.831 5.930 43.382
60.839 6.380 43.375
60.839 6.830 43.376
60.844 7.275 43.349
60.838 7.725 43.333
60.835 8.175 43.349
60.844 8.620 43.338
60.847 9.070 43.373
60.834 9.520 43.393
60.838 9.965 43.375
60.841 10.415 43.381
60.842 10.864 43.322
60.849 11.310 43.318
60.837 11.760 43.335
60.841 12.210 43.371
60.846 12.660 43.373
60.845 13.105 43.347
60.837 13.555 43.368
60.841 14.002 43.393
60.840 14.455 43.376
60.842 14.900 43.330
60.842 15.350 43.339
60.845 15.800 43.350
60.849 16.241 43.383
60.848 16.690 43.390
60.844 17.143 43.346
60.849 17.591 43.376
60.846 18.041 43.361
60.845 18.490 43.363
60.845 18.935 43.361
60.849 19.385 43.388
60.847 19.834 43.352
60.846 20.280 43.341
60.851 20.643 43.315
60.853 20.733 43.318
60.842 21.180 43.366
60.841 21.626 43.359
60.844 22.075 43.380
60.841 22.525 43.366
60.846 22.792 43.383
60.840 22.975 43.354
60.839 23.422 43.397
60.836 23.870 43.344
60.843 24.316 43.383
60.844 24.766 43.380
60.846 24.949 43.341
60.841 25.215 43.349
60.841 25.665 43.359
60.845 26.114 43.339
60.843 26.555 43.385
60.844 27.006 43.376
60.841 27.458 43.351
60.844 27.720 43.390
60.840 27.903 43.356
60.843 28.350 43.389
60.841 28.801 43.364
60.846 29.247 43.403
60.843 29.700 43.377
60.844 30.146 43.380
60.833 30.595 43.371
60.836 31.045 43.382
60.836 31.486 43.403
60.836 31.940 43.382
60.836 32.389 43.389
60.835 32.836 43.406
60.835 33.281 43.403
60.835 33.730 43.393
60.835 34.180 43.420
60.836 34.630 43.404
60.835 35.080 43.404
60.834 35.525 43.406
60.826 35.975 43.418
60.830 36.419 43.425
60.825 36.865 43.423
60.825 37.315 43.425
60.829 37.764 43.409
60.830 38.214 43.404
60.826 38.662 43.414
60.824 39.109 43.402
60.829 39.556 43.409
60.822 40.001 43.449
60.824 40.454 43.439
60.826 40.904 43.436
60.821 41.351 43.449
60.819 41.796 43.453
60.824 42.246 43.439
60.821 42.694 43.458
60.819 43.139 43.461
60.830 43.592 43.434
60.821 44.040 43.453
60.826 44.489 43.439
60.822 44.934 43.446
60.817 45.381 43.468
60.817 45.830 43.467
60.819 46.280 43.458
60.811 46.722 43.492
60.819 47.171 43.490
60.817 47.626 43.466
60.814 48.070 43.458
60.815 48.520 43.472
60.815 48.965 43.475
60.813 49.410 43.482
60.811 49.859 43.496
60.810 50.310 43.495
60.810 50.751 43.511
60.810 51.205 43.495
60.810 51.651 43.504
60.804 52.099 43.499
60.804 52.545 43.497
60.801 52.995 43.497
60.799 53.440 43.502
60.804 53.890 43.497
60.803 54.340 43.499
60.798 54.789 43.506
60.805 55.239 43.501
60.804 55.684 43.497
60.804 56.131 43.506
60.804 56.584 43.494
60.800 57.025 43.522
60.801 57.474 43.530
60.791 57.921 43.530
60.798 58.365 43.537
60.791 58.815 43.535
60.800 59.265 43.533
60.800 59.710 43.530
60.792 60.156 43.549
60.800 60.608 43.533
60.798 61.054 43.533
60.799 61.505 43.522
60.799 61.950 43.533
60.798 62.399 43.530
60.803 62.849 43.518
60.798 63.296 43.528
60.796 63.748 43.520
60.792 64.195 43.534
60.800 64.640 43.548
60.798 65.085 43.550
60.793 65.535 43.550
60.796 65.981 43.551
60.618 -27.426 43.376
60.617 -27.336 43.378
60.617 -27.250 43.381
60.627 -26.532 43.353
60.656 -19.184 43.281
60.673 -11.290 43.322
60.674 -10.210 43.399
60.717 25.931 43.393
60.718 26.114 43.329
60.386 -54.513 43.326
60.469 -33.436 43.376
60.510 -25.283 43.298
60.591 9.609 43.356
60.586 21.892 43.408
60.548 45.017 43.512
60.539 61.868 43.491
60.339 -33.167 43.357
60.344 -32.813 43.314
60.363 -29.138 43.281
60.451 5.125 43.341
60.456 8.175 43.331
60.458 22.438 43.324
60.458 22.528 43.327
60.458 25.031 43.422
60.452 27.897 43.424
60.459 29.337 43.408
60.239 -27.257 43.281
60.261 -19.985 43.382
60.322 9.070 43.390
60.331 9.965 43.386
60.334 24.136 43.403
60.326 29.337 43.409
59.958 -70.759 43.274
59.951 -70.310 43.288
59.956 -69.857 43.297
59.960 -69.414 43.287
59.959 -68.964 43.290
59.969 -68.519 43.270
59.972 -68.073 43.244
59.969 -67.619 43.275
59.969 -67.174 43.268
59.969 -66.724 43.272
59.967 -66.274 43.275
59.966 -65.820 43.299
59.966 -65.371 43.318
59.966 -64.921 43.320
59.970 -64.479 43.272
59.981 -64.035 43.268
59.978 -63.590 43.252
59.975 -63.130 43.301
59.971 -62.676 43.320
59.972 -62.228 43.315
59.980 -61.781 43.301
59.976 -61.336 43.291
59.983 -60.885 43.296
59.980 -60.439 43.304
59.984 -59.990 43.294
59.985 -59.541 43.291
59.989 -59.094 43.304
59.994 -58.649 43.292
59.999 -58.196 43.303
59.995 -57.754 43.293
59.999 -57.301 43.303
59.991 -56.850 43.324
59.996 -56.400 43.322
59.996 -55.951 43.322
60.001 -55.506 43.305
60.007 -55.060 43.287
60.006 -54.607 43.299
60.022 -54.166 43.248
60.013 -53.712 43.297
60.013 -53.260 43.305
60.013 -52.814 43.310
60.011 -52.365 43.315
60.005 -51.910 43.351
60.005 -51.465 43.342
60.021 -51.022 43.296
60.020 -50.574 43.301
60.021 -50.129 43.301
60.020 -49.675 43.325
60.021 -49.225 43.322
60.029 -48.776 43.315
60.031 -48.329 43.301
60.034 -47.883 43.272
60.031 -47.431 43.313
60.031 -46.981 43.320
60.031 -46.531 43.320
60.027 -46.085 43.337
60.031 -45.635 43.335
60.037 -45.187 43.313
60.037 -44.741 43.315
60.039 -44.294 43.316
60.045 -43.849 43.315
60.045 -43.400 43.303
60.044 -42.949 43.322
60.046 -42.499 43.322
60.045 -42.049 43.322
60.054 -41.601 43.300
60.052 -41.159 43.291
60.059 -40.709 43.289
60.061 -40.257 43.294
60.055 -39.814 43.291
60.061 -39.361 43.298
60.068 -38.911 43.299
60.060 -38.465 43.318
60.066 -38.015 43.335
60.057 -37.562 43.351
60.070 -37.120 43.305
60.075 -36.674 43.291
60.071 -36.220 43.315
60.071 -35.774 43.320
60.072 -35.326 43.333
60.080 -34.879 43.298
60.078 -34.430 43.284
60.084 -33.979 43.294
60.083 -33.531 43.322
60.083 -33.083 43.307
60.086 -32.630 43.335
60.092 -32.185 43.335
60.086 -31.735 43.338
60.088 -31.289 43.320
60.091 -30.839 43.322
60.092 -30.389 43.318
60.095 -29.941 43.353
60.100 -29.494 43.320
60.100 -29.040 43.356
60.104 -28.596 43.337
60.100 -28.145 43.355
60.113 -27.699 43.329
60.112 -27.255 43.306
60.110 -26.801 43.353
60.114 -26.355 43.320
60.111 -25.906 43.358
60.112 -25.460 43.320
60.115 -25.010 43.320
60.127 -24.560 43.342
60.116 -24.115 43.329
60.116 -23.664 43.360
60.123 -23.214 43.356
60.120 -22.764 43.380
60.127 -22.311 43.385
60.130 -21.866 43.393
60.125 -21.420 43.356
60.125 -20.971 43.355
60.128 -20.525 43.362
60.132 -20.075 43.358
60.144 -19.629 43.344
60.141 -19.181 43.318
60.140 -18.734 43.322
60.144 -18.286 43.337
60.142 -17.835 43.375
60.137 -17.385 43.377
60.144 -16.936 43.381
60.145 -16.488 43.351
60.146 -16.036 43.381
60.149 -15.593 43.338
60.146 -15.141 43.371
60.149 -14.691 43.370
60.155 -14.250 43.342
60.154 -13.800 43.332
60.158 -13.346 43.388
60.154 -12.905 43.357
60.152 -12.455 43.382
60.151 -12.009 43.327
60.159 -11.560 43.370
60.151 -11.110 43.392
60.151 -10.660 43.391
60.149 -10.209 43.431
60.158 -9.765 43.415
60.170 -9.315 43.373
60.167 -8.865 43.356
60.171 -8.415 43.375
60.174 -7.970 43.365
60.175 -7.520 43.361
60.170 -7.070 43.377
60.166 -6.625 43.393
60.174 -6.175 43.376
60.174 -5.725 43.380
60.172 -5.275 43.392
60.171 -4.830 43.351
60.180 -4.381 43.356
60.184 -3.935 43.325
60.180 -3.485 43.373
60.179 -3.039 43.365
60.180 -2.590 43.386
60.181 -2.140 43.351
60.180 -1.695 43.401
60.179 -1.245 43.377
60.174 -0.795 43.406
60.181 -0.350 43.421
60.184 0.100 43.414
60.184 0.550 43.405
60.188 1.000 43.363
60.181 1.449 43.371
60.188 1.895 43.373
60.190 2.345 43.382
60.190 2.795 43.382
60.190 3.244 43.397
60.197 3.690 43.380
60.198 4.140 43.391
60.196 4.586 43.354
60.200 5.034 43.394
60.193 5.481 43.395
60.194 5.930 43.375
60.193 6.380 43.380
60.191 6.830 43.358
60.194 7.275 43.382
60.195 7.725 43.393
60.188 8.175 43.384
60.196 8.620 43.376
60.199 9.070 43.361
60.201 9.520 43.354
60.204 9.965 43.369
60.199 10.415 43.353
60.204 10.864 43.385
60.198 11.310 43.351
60.196 11.760 43.341
60.202 12.210 43.382
60.198 12.660 43.358
60.208 13.105 43.370
60.210 13.555 43.363
60.209 14.005 43.368
60.205 14.455 43.335
60.209 14.900 43.363
60.206 15.349 43.342
60.203 15.795 43.388
60.203 16.240 43.393
60.204 16.690 43.388
60.205 17.140 43.385
60.201 17.590 43.400
60.207 18.043 43.339
60.211 18.490 43.361
60.211 18.936 43.363
60.205 19.386 43.374
60.204 19.835 43.347
60.209 20.280 43.376
60.203 20.730 43.344
60.206 21.180 43.385
60.199 21.625 43.409
60.201 22.074 43.397
60.204 22.525 43.366
60.209 22.975 43.382
60.207 23.424 43.378
60.201 23.870 43.339
60.204 24.316 43.388
60.202 24.766 43.388
60.208 25.214 43.371
60.204 25.660 43.397
60.199 26.110 43.384
60.195 26.556 43.368
60.195 27.009 43.354
60.198 27.454 43.382
60.198 27.900 43.390
60.196 28.350 43.404
60.199 28.799 43.392
60.202 29.249 43.389
60.199 29.700 43.385
60.195 30.145 43.404
60.189 30.595 43.385
60.191 31.040 43.427
60.190 31.486 43.416
60.197 31.935 43.421
60.191 32.386 43.404
60.194 32.839 43.373
60.193 33.280 43.432
60.189 33.730 43.404
60.190 34.180 43.414
60.189 34.630 43.420
60.181 35.075 43.444
60.184 35.520 43.451
-89.471 -58.013 44.561
60.180 35.971 43.439
60.179 36.419 43.438
60.186 36.865 43.428
60.191 37.318 43.416
60.179 37.761 43.423
60.178 38.210 43.447
60.186 38.664 43.407
60.187 39.106 43.421
60.187 39.556 43.404
60.180 40.004 43.427
60.179 40.451 43.453
60.175 40.901 43.466
60.178 41.351 43.437
60.187 41.799 43.413
60.177 42.246 43.437
60.178 42.696 43.451
60.174 43.136 43.475
60.177 43.586 43.471
60.175 44.036 43.470
60.178 44.490 43.437
60.171 44.935 43.455
60.164 45.376 43.506
-89.481 -60.056 44.626
60.176 45.827 43.490
60.166 46.275 43.506
60.169 46.721 43.504
60.167 47.170 43.509
60.173 47.621 43.493
60.166 48.066 43.502
60.164 48.514 43.511
60.167 48.965 43.495
60.162 49.407 43.521
60.165 49.855 43.510
60.169 50.310 43.482
60.166 50.755 43.480
60.171 51.205 43.482
60.169 51.654 43.480
60.169 52.100 43.490
60.156 52.542 43.518
60.156 52.995 43.508
60.154 53.437 43.525
60.159 53.890 43.499
60.159 54.341 43.496
60.156 54.789 43.508
60.159 55.239 43.486
60.160 55.681 43.508
60.159 56.133 43.501
60.156 56.579 43.530
60.154 57.024 43.530
60.155 57.475 43.528
60.158 57.924 43.513
60.154 58.366 43.530
60.156 58.815 43.530
60.156 59.265 43.530
60.154 59.710 43.535
60.153 60.164 43.503
60.156 60.609 43.529
60.155 61.051 43.555
60.156 61.502 43.540
60.148 61.946 43.549
60.155 62.399 43.535
60.155 62.849 43.532
60.155 63.295 43.533
60.148 63.744 43.547
60.151 64.192 43.559
60.152 64.636 43.563
60.151 65.085 43.561
60.147 65.535 43.561
60.146 65.979 43.566
59.903 -51.026 43.269
59.921 -45.463 43.276
59.935 -41.249 43.271
59.987 -26.625 43.305
59.980 -25.815 43.385
59.981 -25.726 43.374
59.993 -20.615 43.371
60.013 -18.734 43.300
60.026 -11.290 43.333
60.037 -6.805 43.343
60.075 22.795 43.327
60.068 29.790 43.380
60.054 45.025 43.436
59.780 -50.133 43.264
59.782 -47.972 43.274
59.816 -35.418 43.305
59.835 -30.480 43.359
59.870 -23.308 43.288
59.874 -19.989 43.300
59.951 17.413 43.358
59.637 -51.828 43.286
59.659 -46.272 43.284
59.669 -39.806 43.356
59.689 -36.043 43.286
59.694 -32.986 43.381
59.694 -32.897 43.378
59.708 -29.499 43.305
59.720 -28.419 43.314
59.720 -27.516 43.373
59.729 -25.099 43.324
59.729 -21.236 43.431
59.751 -19.004 43.298
59.816 16.870 43.440
59.814 16.960 43.436
59.823 17.413 43.356
59.817 19.205 43.395
59.814 20.997 43.402
59.817 22.521 43.388
59.783 39.371 43.483
59.784 39.461 43.478
59.526 -43.842 43.359
59.524 -43.752 43.371
59.528 -43.663 43.361
59.552 -35.318 43.391
59.556 -35.230 43.382
59.599 -26.622 43.344
59.610 -24.118 43.307
59.614 -22.855 43.314
59.626 -15.594 43.334
59.639 -11.920 43.339
59.681 7.995 43.341
59.693 18.310 43.417
59.689 20.547 43.404
-89.106 66.180 44.324
59.690 21.715 43.344
59.691 24.046 43.403
59.314 -70.755 43.292
59.312 -70.306 43.303
-89.104 65.739 44.281
59.310 -69.855 43.307
59.322 -69.419 43.272
59.323 -68.969 43.273
59.321 -68.518 43.278
-89.105 65.295 44.276
59.324 -68.069 43.272
59.324 -67.620 43.270
59.324 -67.174 43.275
59.325 -66.719 43.294
-89.114 64.850 44.261
59.320 -66.265 43.322
59.320 -65.820 43.305
59.323 -65.375 43.292
59.324 -64.925 43.294
-89.114 64.404 44.257
59.334 -64.479 43.272
59.333 -64.034 43.271
59.338 -63.588 43.261
59.331 -63.130 43.299
-89.098 63.952 44.299
59.329 -62.680 43.292
59.329 -62.229 43.296
59.334 -61.781 43.305
59.327 -61.331 43.333
-89.088 63.505 44.301
59.334 -60.884 43.307
59.332 -60.436 43.321
59.341 -59.991 43.289
59.341 -59.540 43.304
-89.086 63.055 44.322
59.345 -59.095 43.290
59.341 -58.649 43.292
59.345 -58.199 43.287
59.343 -57.754 43.292
-89.087 62.610 44.322
59.349 -57.300 43.300
59.349 -56.850 43.307
59.349 -56.399 43.322
59.357 -55.953 43.298
-89.087 62.164 44.306
59.361 -55.510 43.272
59.364 -55.059 43.284
59.371 -54.972 43.269
59.374 -54.612 43.265
-89.095 61.719 44.292
59.365 -54.159 43.289
59.368 -53.710 43.303
59.367 -53.259 43.327
59.371 -52.814 43.300
-89.088 61.270 44.301
59.371 -52.365 43.300
59.368 -51.914 43.324
59.370 -51.469 43.320
59.388 -51.028 43.258
-89.098 60.830 44.266
59.386 -50.576 43.284
59.371 -50.124 43.335
59.384 -49.680 43.289
59.388 -49.231 43.284
-89.105 60.384 44.252
59.378 -48.776 43.321
59.368 -48.321 43.349
59.383 -47.875 43.338
59.387 -47.434 43.308
-89.103 59.938 44.259
59.384 -46.979 43.337
59.391 -46.532 43.315
59.391 -46.086 43.322
59.397 -45.638 43.313
-89.099 59.485 44.272
59.400 -45.186 43.318
59.395 -44.740 43.335
59.398 -44.294 43.324
59.399 -43.847 43.329
-89.104 59.040 44.257
59.399 -43.399 43.322
59.404 -42.946 43.338
59.409 -42.499 43.318
59.411 -42.050 43.315
-89.099 58.593 44.274
59.410 -41.600 43.322
59.414 -41.159 43.289
59.409 -40.701 43.338
59.416 -40.255 43.305
-89.099 58.145 44.272
59.406 -39.805 43.342
59.410 -39.360 43.322
59.416 -38.910 43.310
59.418 -38.465 43.305
-89.100 57.699 44.272
59.416 -38.015 43.330
59.419 -37.562 43.364
59.425 -37.116 43.351
59.424 -36.670 43.335
-89.107 57.255 44.260
59.430 -36.220 43.318
59.430 -35.774 43.322
59.429 -35.321 43.368
59.433 -34.875 43.339
-89.110 56.805 44.272
59.430 -34.426 43.320
59.442 -33.976 43.320
59.444 -33.531 43.334
59.440 -33.080 43.325
-89.104 56.361 44.276
59.449 -32.633 43.307
59.450 -32.184 43.344
59.450 -31.735 43.340
59.442 -31.285 43.357
-89.110 55.911 44.282
59.447 -30.840 43.358
59.446 -30.390 43.353
59.447 -29.941 43.349
59.449 -29.495 43.364
-89.111 55.466 44.264
59.455 -29.045 43.340
59.460 -28.599 43.325
59.463 -28.146 43.339
59.455 -27.696 43.351
-89.102 55.021 44.273
59.470 -27.254 43.332
59.464 -26.805 43.294
59.467 -26.622 43.354
59.471 -26.355 43.315
-89.109 54.578 44.237
59.466 -25.905 43.385
59.466 -25.456 43.383
59.469 -25.010 43.329
59.474 -24.559 43.354
-89.118 54.129 44.254
59.480 -24.116 43.324
59.473 -23.665 43.351
59.481 -23.215 43.339
59.485 -23.032 43.369
-89.120 53.686 44.224
-89.124 53.602 44.193
59.482 -22.765 43.341
59.480 -22.311 43.403
59.480 -22.135 43.426
-89.123 53.236 44.232
59.480 -22.045 43.431
59.481 -21.865 43.423
59.474 -21.415 43.408
59.473 -20.970 43.392
-89.103 52.782 44.294
59.480 -20.525 43.371
59.482 -20.074 43.392
59.494 -19.630 43.333
59.498 -19.180 43.366
-89.119 52.344 44.234
59.499 -19.090 43.381
59.498 -19.000 43.376
59.498 -18.731 43.366
59.496 -18.285 43.356
-89.120 51.893 44.273
59.495 -17.835 43.351
59.507 -17.385 43.368
59.507 -16.936 43.366
59.501 -16.486 43.373
-89.131 51.452 44.241
59.499 -16.035 43.390
59.501 -15.594 43.336
59.514 -15.141 43.370
59.509 -14.694 43.358
-89.121 51.001 44.248
59.514 -14.250 43.342
59.513 -13.799 43.354
59.507 -13.349 43.365
59.506 -12.901 43.394
-89.125 50.554 44.236
59.511 -12.455 43.370
59.509 -12.009 43.349
59.507 -11.560 43.382
59.506 -11.106 43.412
-89.121 50.106 44.259
59.514 -10.660 43.408
59.515 -10.210 43.428
59.518 -9.765 43.377
59.520 -9.315 43.370
-89.125 49.660 44.250
59.525 -8.865 43.353
59.526 -8.415 43.395
59.531 -7.970 43.373
59.521 -7.520 43.380
-89.123 49.215 44.235
59.523 -7.070 43.399
59.520 -6.625 43.394
59.538 -6.175 43.391
59.532 -5.997 43.343
-89.134 48.773 44.220
59.539 -5.725 43.377
59.534 -5.278 43.355
59.532 -4.826 43.388
59.532 -4.377 43.404
-89.126 48.320 44.259
59.529 -3.931 43.399
59.530 -3.755 43.341
59.536 -3.485 43.363
59.540 -3.039 43.380
-89.125 47.871 44.261
59.540 -2.590 43.377
59.539 -2.140 43.378
59.536 -1.695 43.397
59.543 -1.245 43.368
-89.126 47.425 44.250
59.536 -0.795 43.397
59.531 -0.350 43.359
59.535 0.100 43.411
59.541 0.550 43.393
-89.135 46.981 44.230
59.542 1.000 43.374
59.542 1.449 43.378
59.536 1.895 43.377
59.544 2.345 43.382
-89.134 46.534 44.229
59.541 2.795 43.404
59.550 3.244 43.395
59.546 3.690 43.346
59.542 4.140 43.395
-89.128 46.084 44.260
59.542 4.586 43.373
59.554 5.035 43.366
59.544 5.480 43.407
59.549 5.930 43.385
-89.135 45.636 44.245
59.555 6.380 43.380
59.549 6.830 43.402
59.542 7.275 43.385
59.551 7.725 43.400
-89.126 45.185 44.274
59.554 8.175 43.363
59.559 8.620 43.390
59.556 9.070 43.411
59.551 9.520 43.397
-89.132 44.740 44.271
59.556 9.965 43.347
59.555 10.415 43.354
59.550 10.864 43.409
59.548 11.310 43.366
-89.135 44.291 44.278
59.554 11.760 43.395
59.554 12.210 43.360
59.563 12.660 43.379
59.558 13.105 43.341
-89.135 43.849 44.267
59.556 13.551 43.400
59.556 14.004 43.389
59.563 14.451 43.397
59.554 14.895 43.407
-89.137 43.400 44.265
59.553 15.349 43.366
59.554 15.796 43.384
59.557 16.240 43.423
59.554 16.690 43.404
-89.143 42.955 44.252
59.567 17.140 43.414
59.559 17.593 43.356
59.563 18.040 43.378
59.559 18.493 43.339
-89.145 42.506 44.263
59.554 18.935 43.369
59.563 19.385 43.381
59.559 19.834 43.407
59.554 20.279 43.399
-89.154 42.060 44.250
59.554 20.730 43.400
59.554 21.176 43.400
59.567 21.625 43.349
59.560 22.075 43.361
-89.154 41.615 44.232
59.568 22.520 43.358
59.564 22.969 43.386
59.564 23.420 43.376
59.556 23.870 43.334
-89.159 41.174 44.214
59.555 24.319 43.356
59.559 24.761 43.400
59.549 25.210 43.407
59.542 25.660 43.394
-89.149 40.722 44.237
59.544 26.109 43.409
59.548 26.555 43.375
59.550 27.005 43.382
59.557 27.453 43.406
-89.154 40.275 44.229
59.558 27.899 43.404
59.550 28.350 43.388
59.554 28.796 43.416
59.553 29.246 43.416
-89.160 39.830 44.224
59.552 29.696 43.421
59.546 30.141 43.424
59.549 30.589 43.449
59.551 31.044 43.394
-89.159 39.380 44.233
59.554 31.485 43.423
59.544 31.935 43.415
59.546 32.384 43.444
59.545 32.835 43.438
-89.156 38.932 44.241
59.537 33.279 43.441
59.544 33.730 43.423
59.546 34.179 43.427
59.544 34.625 43.444
-89.161 38.489 44.231
59.545 35.076 43.438
59.545 35.520 43.444
59.544 35.970 43.442
59.544 36.419 43.449
-89.154 38.040 44.243
59.544 36.864 43.451
59.544 37.315 43.444
59.544 37.760 43.441
59.544 38.210 43.439
-89.160 37.591 44.245
59.539 38.655 43.458
59.539 39.101 43.456
59.539 39.550 43.458
59.544 40.001 43.459
-89.158 37.144 44.252
59.544 40.451 43.449
59.542 40.901 43.451
59.542 41.350 43.456
59.536 41.795 43.453
-89.168 36.699 44.233
59.538 42.244 43.446
59.531 42.691 43.472
59.531 43.136 43.489
59.533 43.588 43.467
-89.161 36.254 44.248
59.524 44.036 43.472
59.535 44.484 43.460
59.531 44.929 43.492
59.524 45.372 43.519
-89.161 35.805 44.264
59.526 45.822 43.507
59.540 46.274 43.469
59.529 46.720 43.495
59.528 47.170 43.497
-89.162 35.356 44.274
59.529 47.616 43.493
59.528 48.066 43.494
59.520 48.514 43.513
59.528 48.964 43.511
-89.169 34.910 44.247
59.522 49.407 43.522
59.521 49.856 43.511
59.528 50.309 43.486
59.528 50.754 43.501
-89.171 34.465 44.245
59.528 51.204 43.501
59.522 51.650 43.508
59.519 52.096 43.511
59.519 52.545 43.510
-89.174 34.020 44.229
59.519 52.995 43.497
59.519 53.440 43.499
59.521 53.891 43.496
59.519 54.339 43.499
-89.176 33.571 44.231
59.511 54.789 43.515
59.510 55.235 43.530
59.511 55.678 43.537
59.514 56.125 43.550
-89.177 33.124 44.239
59.505 56.576 43.548
59.514 57.025 43.530
59.514 57.470 43.533
59.511 57.916 43.559
-89.185 32.679 44.229
59.509 58.360 43.568
59.505 58.814 43.552
59.502 59.261 43.563
59.502 59.706 43.559
-89.185 32.231 44.214
59.509 60.156 43.552
59.509 60.603 43.568
59.509 61.051 43.545
59.509 61.501 43.547
-89.194 31.784 44.212
59.513 61.950 43.533
59.509 62.396 43.549
59.509 62.844 43.554
59.509 63.286 43.568
-89.177 31.334 44.257
59.502 63.736 43.566
59.507 64.189 43.554
59.506 64.626 43.583
59.501 65.078 43.572
-89.184 30.889 44.233
59.505 65.526 43.580
59.512 65.979 43.564
59.249 -49.498 43.318
59.252 -45.007 43.373
-89.195 30.444 44.209
59.336 -25.722 43.409
59.343 -24.736 43.397
59.392 44.836 43.514
59.076 -57.743 43.342
-89.194 29.994 44.231
59.210 -26.624 43.317
59.225 -23.038 43.305
59.221 -22.584 43.343
59.219 -21.509 43.357
-89.186 29.547 44.241
59.241 -16.308 43.338
59.243 -15.410 43.411
59.275 -6.265 43.356
59.293 15.525 43.439
-89.194 29.100 44.233
59.303 26.823 43.424
59.258 43.762 43.516
59.249 60.341 43.527
59.068 -29.498 43.319
-89.194 28.651 44.243
59.092 -24.650 43.313
59.091 -23.841 43.381
59.131 -7.970 43.353
59.166 8.620 43.342
-89.202 28.208 44.217
59.162 27.365 43.382
58.876 -43.033 43.371
58.896 -40.342 43.326
58.941 -28.419 43.315
-89.198 27.759 44.241
58.964 -24.653 43.303
59.028 2.615 43.368
59.038 24.404 43.422
59.037 26.825 43.389
-89.214 27.314 44.197
59.041 30.677 43.464
58.665 -70.750 43.307
58.666 -70.306 43.304
58.666 -69.855 43.305
-89.205 26.866 44.227
58.675 -69.411 43.299
58.671 -68.966 43.287
58.667 -68.507 43.331
58.669 -68.060 43.318
-89.204 26.419 44.231
58.676 -67.611 43.303
58.673 -67.166 43.313
58.675 -66.716 43.301
58.671 -66.265 43.325
-89.196 25.970 44.247
58.675 -65.819 43.304
58.681 -65.376 43.287
58.690 -64.930 43.266
58.682 -64.476 43.285
-89.201 25.525 44.227
58.682 -64.031 43.285
58.689 -63.584 43.273
58.685 -63.131 43.292
58.681 -62.685 43.303
-89.210 25.076 44.224
58.687 -62.234 43.308
58.688 -61.784 43.310
58.690 -61.340 43.301
58.691 -60.889 43.306
-89.201 24.630 44.231
58.699 -60.439 43.301
58.700 -59.990 43.296
58.700 -59.540 43.300
58.693 -59.091 43.333
-89.199 24.181 44.249
58.697 -58.642 43.313
58.694 -58.190 43.322
58.687 -58.097 43.340
58.704 -57.750 43.301
-89.209 23.735 44.232
58.700 -57.296 43.335
58.700 -56.846 43.338
58.702 -56.394 43.344
58.714 -55.951 43.303
-89.217 23.289 44.232
58.720 -55.508 43.291
58.719 -55.059 43.287
58.719 -54.610 43.285
58.719 -54.159 43.291
-89.217 22.840 44.232
58.720 -53.711 43.301
58.719 -53.260 43.303
58.731 -52.904 43.281
58.722 -52.815 43.301
-89.219 22.395 44.227
58.727 -52.364 43.309
58.713 -51.907 43.366
58.725 -51.470 43.313
58.728 -51.016 43.333
-89.217 21.950 44.234
58.731 -50.570 43.322
58.739 -50.129 43.305
58.728 -49.671 43.351
58.727 -49.223 43.346
-89.215 21.500 44.249
58.728 -48.774 43.341
58.737 -48.325 43.340
58.736 -47.875 43.322
58.747 -47.434 43.296
-89.211 21.055 44.263
58.752 -46.984 43.305
58.746 -46.531 43.318
58.745 -46.085 43.338
58.737 -45.631 43.353
-89.216 20.610 44.249
58.746 -45.186 43.353
58.741 -44.736 43.370
58.746 -44.291 43.338
58.749 -43.848 43.327
-89.209 20.160 44.267
58.753 -43.396 43.349
58.746 -42.946 43.339
58.760 -42.500 43.320
58.759 -42.049 43.322
-89.216 19.710 44.264
58.756 -41.596 43.353
58.766 -41.151 43.339
58.761 -40.704 43.314
58.769 -40.250 43.368
-89.216 19.265 44.265
58.769 -39.806 43.349
58.761 -39.355 43.357
58.766 -38.906 43.368
58.771 -38.460 43.356
-89.224 18.816 44.247
58.777 -38.014 43.341
58.774 -37.565 43.324
58.784 -37.119 43.329
58.779 -36.669 43.342
-89.226 18.371 44.242
58.779 -36.216 43.371
58.783 -35.773 43.341
58.781 -35.321 43.369
58.771 -34.870 43.390
-89.226 17.924 44.232
58.781 -34.421 43.385
58.790 -33.975 43.322
58.795 -33.530 43.342
58.795 -33.080 43.353
-89.226 17.476 44.224
58.807 -32.626 43.373
58.797 -32.184 43.356
58.791 -31.732 43.370
58.800 -31.372 43.388
-89.225 17.031 44.232
58.798 -31.286 43.356
58.797 -30.840 43.354
58.804 -30.390 43.344
58.808 -29.941 43.356
-89.226 16.585 44.247
58.811 -29.495 43.353
58.814 -29.049 43.326
58.814 -28.595 43.373
58.811 -28.145 43.355
-89.226 16.135 44.247
58.816 -27.696 43.353
58.813 -27.251 43.354
58.824 -26.805 43.327
58.822 -26.444 43.319
-89.234 15.690 44.212
58.818 -26.352 43.344
58.812 -25.906 43.375
58.824 -25.458 43.362
58.827 -25.010 43.342
-89.235 15.245 44.227
58.833 -24.559 43.346
58.830 -24.111 43.366
58.832 -23.665 43.322
58.831 -23.211 43.390
-89.234 14.795 44.251
58.835 -22.761 43.406
58.839 -22.316 43.371
58.840 -21.866 43.394
58.838 -21.416 43.404
-89.235 14.345 44.249
58.853 -20.971 43.373
58.846 -20.525 43.375
58.849 -20.075 43.344
58.853 -19.629 43.380
-89.236 13.900 44.244
58.844 -19.179 43.389
58.850 -18.730 43.382
58.842 -18.285 43.390
58.849 -17.835 43.375
-89.254 13.455 44.214
58.849 -17.385 43.377
58.850 -16.935 43.377
58.851 -16.485 43.393
58.861 -16.035 43.394
-89.245 13.005 44.249
58.852 -15.590 43.367
58.867 -15.141 43.377
58.865 -14.694 43.360
58.861 -14.245 43.390
-89.241 12.560 44.247
58.861 -13.795 43.377
58.861 -13.346 43.401
58.862 -12.901 43.394
58.866 -12.455 43.375
-89.241 12.114 44.261
58.865 -12.009 43.377
58.866 -11.560 43.390
58.866 -11.110 43.393
58.865 -10.660 43.395
-89.240 11.666 44.263
58.867 -10.210 43.401
58.866 -9.765 43.397
58.871 -9.315 43.408
58.878 -8.865 43.401
-89.242 11.219 44.249
58.879 -8.415 43.406
58.879 -7.970 43.397
58.874 -7.520 43.411
58.884 -7.070 43.384
-89.240 10.771 44.265
58.882 -6.625 43.396
58.888 -6.175 43.428
58.887 -5.725 43.404
58.889 -5.276 43.377
-89.240 10.325 44.279
58.888 -4.826 43.403
58.884 -4.377 43.416
58.888 -3.931 43.432
58.889 -3.484 43.404
-89.240 9.880 44.268
58.886 -3.036 43.413
58.895 -2.590 43.370
58.892 -2.140 43.394
58.893 -1.695 43.397
-89.241 9.431 44.278
58.898 -1.245 43.387
58.899 -0.795 43.382
58.898 -0.350 43.385
58.890 0.100 43.406
-89.240 8.985 44.284
58.890 0.550 43.413
58.897 1.000 43.407
58.894 1.449 43.402
58.899 1.895 43.418
-89.253 8.535 44.261
58.899 2.345 43.409
58.900 2.795 43.417
58.904 3.244 43.380
58.904 3.690 43.382
-89.250 8.090 44.265
58.904 4.140 43.397
58.899 4.584 43.413
58.905 5.035 43.397
58.904 5.480 43.402
-89.250 7.640 44.251
58.904 5.929 43.397
58.904 6.380 43.402
58.912 6.830 43.385
58.901 7.099 43.374
-89.253 7.195 44.237
58.903 7.186 43.374
58.909 7.275 43.374
58.905 7.725 43.373
58.908 8.175 43.345
-89.254 6.750 44.246
58.910 8.620 43.366
58.901 9.070 43.368
58.909 9.430 43.362
58.903 9.520 43.370
-89.254 6.304 44.251
58.909 9.965 43.361
58.905 10.415 43.399
58.906 10.685 43.346
58.908 10.864 43.397
-89.256 5.855 44.244
58.918 11.310 43.382
58.919 11.760 43.396
58.914 12.120 43.341
58.912 12.210 43.356
-89.254 5.409 44.267
58.909 12.659 43.403
58.913 13.104 43.406
58.911 13.551 43.400
58.909 14.000 43.421
-89.251 4.960 44.298
58.908 14.450 43.407
58.909 14.895 43.407
58.909 15.345 43.407
58.917 15.796 43.389
-89.256 4.514 44.296
58.916 16.244 43.377
58.907 16.510 43.444
58.904 16.690 43.408
58.914 17.140 43.432
-89.251 4.069 44.294
58.919 17.590 43.389
58.917 18.040 43.396
58.916 18.490 43.383
58.917 18.935 43.389
-89.255 3.620 44.286
58.914 19.385 43.377
58.909 19.834 43.390
58.914 20.280 43.397
58.911 20.730 43.395
-89.264 3.174 44.269
58.914 21.176 43.363
58.907 21.625 43.377
58.914 22.074 43.409
58.918 22.519 43.387
-89.255 2.726 44.296
58.911 22.969 43.390
58.911 23.419 43.389
58.911 23.689 43.349
58.907 23.779 43.366
-89.256 2.280 44.286
58.909 23.868 43.390
58.911 23.956 43.407
58.913 24.316 43.404
58.906 24.761 43.388
-89.264 1.830 44.286
58.909 24.853 43.369
58.910 25.210 43.432
58.911 25.659 43.421
58.911 25.747 43.434
-89.265 1.385 44.284
58.906 26.110 43.404
58.908 26.555 43.406
58.908 27.005 43.406
58.906 27.454 43.406
-89.270 0.939 44.281
58.905 27.900 43.406
58.903 28.080 43.379
58.906 28.350 43.392
58.911 28.795 43.449
-89.265 0.490 44.298
58.896 29.248 43.416
58.913 29.696 43.425
58.908 30.141 43.433
58.910 30.590 43.453
-89.270 0.045 44.271
58.906 31.041 43.402
58.901 31.485 43.423
58.901 31.931 43.449
58.894 32.380 43.478
-89.270 -0.405 44.268
58.891 32.827 43.514
58.893 33.276 43.461
58.892 33.726 43.456
58.899 34.176 43.453
-89.271 -0.850 44.284
58.904 34.629 43.411
58.900 35.076 43.437
58.893 35.520 43.458
58.895 35.965 43.490
-89.270 -1.299 44.283
58.899 36.419 43.446
58.893 36.864 43.460
58.892 37.314 43.454
58.897 37.761 43.446
-89.273 -1.745 44.274
58.890 38.209 43.460
58.889 38.655 43.460
58.898 39.104 43.444
58.895 39.550 43.480
-89.279 -2.190 44.265
58.894 39.999 43.477
58.885 40.447 43.486
58.891 40.900 43.475
58.897 41.351 43.451
-89.274 -2.640 44.272
58.904 41.799 43.427
58.890 42.244 43.460
58.891 42.694 43.458
58.888 43.135 43.480
-89.270 -3.086 44.283
58.884 43.586 43.487
58.887 44.034 43.484
58.892 44.483 43.467
58.888 44.930 43.478
-89.268 -3.533 44.303
58.885 45.372 43.506
58.886 45.822 43.504
58.876 46.270 43.528
58.884 46.720 43.513
-89.270 -3.979 44.318
58.886 47.170 43.508
58.880 47.616 43.496
58.877 48.061 43.525
58.889 48.519 43.480
-89.260 -4.424 44.334
58.886 48.965 43.508
58.883 49.409 43.511
58.877 49.856 43.508
58.876 50.305 43.530
-89.271 -4.874 44.318
58.875 50.750 43.530
58.882 51.200 43.513
58.875 51.649 43.510
58.875 52.095 43.510
-89.272 -5.320 44.315
58.882 52.544 43.511
58.872 52.995 43.497
58.875 53.439 43.513
58.874 53.889 43.515
-89.274 -5.766 44.324
58.871 54.335 43.542
58.866 54.785 43.530
58.869 55.232 43.542
58.870 55.675 43.563
-89.277 -6.215 44.320
58.870 56.125 43.550
58.864 56.577 43.542
58.869 57.024 43.533
58.865 57.470 43.550
-89.271 -6.664 44.331
58.865 57.919 43.554
58.861 58.361 43.581
58.860 58.809 43.588
58.864 59.259 43.568
-89.270 -7.109 44.336
58.860 59.702 43.578
58.861 60.150 43.600
58.859 60.607 43.539
58.861 61.054 43.533
-89.280 -7.554 44.320
58.858 61.499 43.566
58.866 61.946 43.549
58.861 62.391 43.576
58.873 62.757 43.529
-89.279 -8.000 44.322
58.867 62.844 43.549
58.865 63.290 43.552
58.857 63.736 43.563
58.857 64.185 43.566
-89.287 -8.445 44.307
58.861 64.627 43.580
58.864 65.079 43.568
58.861 65.525 43.585
58.869 65.976 43.581
-89.280 -8.895 44.319
58.652 -36.033 43.393
58.647 -35.944 43.382
58.701 -24.740 43.390
58.700 -24.650 43.393
-89.290 -9.341 44.281
58.734 -16.125 43.416
58.735 -16.035 43.419
58.774 6.199 43.374
58.779 26.462 43.440
-89.279 -9.789 44.324
58.786 26.645 43.377
58.778 27.541 43.382
58.509 -39.442 43.393
58.563 -28.412 43.397
-89.289 -10.235 44.318
58.559 -26.077 43.431
58.586 -22.590 43.319
58.634 -8.505 43.333
58.651 31.392 43.461
-89.284 -10.684 44.322
58.636 33.181 43.516
58.639 35.426 43.493
58.369 -45.637 43.317
58.382 -40.523 43.322
-89.294 -11.131 44.303
58.385 -37.651 43.361
58.394 -37.481 43.309
58.414 -30.118 43.376
58.503 -8.505 43.348
-89.293 -11.579 44.322
58.499 -6.894 43.333
58.500 -6.805 43.334
58.523 16.960 43.438
58.514 32.918 43.453
-89.285 -12.025 44.349
58.509 35.427 43.480
58.216 -53.897 43.264
58.189 -52.447 43.377
58.249 -41.237 43.385
-89.293 -12.470 44.334
58.264 -36.939 43.317
58.267 -35.856 43.378
58.283 -34.518 43.307
58.289 -32.904 43.314
-89.291 -12.919 44.320
58.289 -32.717 43.369
58.292 -30.476 43.412
58.309 -28.598 43.317
58.305 -28.509 43.309
-89.286 -13.365 44.344
58.303 -28.419 43.314
58.357 -13.616 43.387
58.364 -6.535 43.428
58.390 5.752 43.379
-89.298 -13.810 44.322
58.399 10.055 43.361
58.399 10.145 43.363
58.404 16.782 43.368
58.394 19.384 43.384
-89.289 -14.255 44.336
58.396 19.474 43.379
58.395 19.565 43.377
58.402 21.000 43.351
58.388 32.918 43.456
-89.292 -14.705 44.333
58.384 35.876 43.480
58.352 66.152 43.599
58.015 -70.750 43.310
58.016 -70.305 43.308
-89.300 -15.154 44.322
58.026 -69.856 43.303
58.028 -69.417 43.280
58.026 -68.961 43.304
58.025 -68.510 43.307
-89.289 -15.599 44.353
58.018 -68.060 43.322
58.026 -67.611 43.303
58.026 -67.166 43.301
58.031 -66.715 43.313
-89.284 -16.044 44.373
58.026 -66.266 43.306
58.025 -65.816 43.322
58.034 -65.374 43.306
58.039 -64.925 43.292
-89.286 -16.491 44.373
58.037 -64.472 43.318
58.036 -64.026 43.321
58.043 -63.579 43.306
58.044 -63.130 43.307
-89.289 -16.936 44.360
58.042 -62.684 43.308
58.042 -62.230 43.330
58.042 -61.781 43.338
58.046 -61.336 43.325
-89.291 -17.386 44.334
58.046 -60.886 43.322
58.055 -60.440 43.300
58.053 -59.986 43.315
58.051 -59.535 43.325
-89.299 -17.835 44.320
58.039 -59.086 43.351
58.052 -58.641 43.320
58.058 -58.194 43.305
58.059 -57.749 43.303
-89.294 -18.281 44.349
58.051 -57.295 43.339
58.052 -56.841 43.351
58.061 -56.397 43.333
58.065 -55.951 43.318
-89.299 -18.725 44.338
58.075 -55.506 43.296
58.072 -55.055 43.305
58.074 -54.605 43.305
58.074 -54.156 43.303
-89.300 -19.175 44.336
58.088 -53.716 43.268
58.074 -53.260 43.303
58.089 -52.814 43.310
58.080 -52.361 43.336
-89.301 -19.620 44.334
58.080 -51.914 43.320
58.084 -51.467 43.330
58.086 -51.016 43.337
58.089 -50.570 43.325
-89.301 -20.069 44.334
58.097 -50.127 43.309
58.088 -49.671 43.351
58.088 -49.221 43.354
58.088 -48.771 43.349
-89.300 -20.515 44.353
58.097 -48.326 43.333
58.091 -47.871 43.366
58.109 -47.431 43.318
58.106 -46.981 43.333
-89.300 -20.959 44.368
58.092 -46.526 43.356
58.096 -46.081 43.366
58.099 -45.630 43.362
58.096 -45.181 43.375
-89.300 -21.405 44.356
58.104 -44.736 43.373
58.113 -44.383 43.319
58.110 -44.290 43.343
58.109 -43.844 43.342
-89.298 -21.855 44.363
58.118 -43.395 43.342
58.119 -42.945 43.344
58.113 -42.498 43.327
58.122 -42.132 43.373
-89.291 -22.296 44.384
58.120 -42.044 43.356
58.119 -41.596 43.341
58.119 -41.150 43.357
58.124 -40.700 43.340
-89.291 -22.745 44.387
58.123 -40.250 43.356
58.128 -39.804 43.368
58.121 -39.356 43.364
58.135 -38.909 43.344
-89.301 -23.191 44.356
58.135 -38.554 43.322
58.134 -38.464 43.339
58.133 -38.284 43.319
58.139 -38.011 43.371
-89.301 -23.641 44.351
58.134 -37.561 43.366
58.138 -37.119 43.342
58.139 -36.666 43.358
58.134 -36.217 43.349
-89.296 -24.089 44.373
58.137 -35.766 43.399
58.136 -35.320 43.380
58.136 -34.871 43.373
58.151 -34.425 43.339
-89.302 -24.534 44.377
58.151 -33.973 43.365
58.150 -33.529 43.365
58.156 -33.080 43.355
58.153 -32.626 43.371
-89.296 -24.980 44.389
58.153 -32.184 43.356
58.158 -31.734 43.356
58.161 -31.285 43.373
58.159 -30.840 43.344
-89.304 -25.430 44.356
58.159 -30.477 43.384
58.158 -30.389 43.361
58.170 -30.214 43.317
58.167 -29.941 43.341
-89.295 -25.874 44.406
58.171 -29.494 43.371
58.175 -29.041 43.404
58.181 -28.596 43.341
58.171 -28.141 43.406
-89.293 -26.319 44.398
58.173 -27.699 43.334
58.179 -27.250 43.356
58.176 -26.800 43.377
58.175 -26.350 43.370
-89.287 -26.765 44.421
58.176 -26.085 43.332
58.176 -25.905 43.373
58.184 -25.456 43.392
58.186 -25.006 43.390
-89.302 -27.214 44.381
58.192 -24.564 43.356
58.190 -24.115 43.355
58.196 -23.664 43.361
58.196 -23.219 43.358
-89.298 -27.660 44.391
58.196 -22.766 43.390
58.190 -22.315 43.425
58.191 -21.869 43.375
58.192 -21.419 43.397
-89.298 -28.106 44.391
58.201 -20.974 43.373
58.204 -20.525 43.357
58.210 -20.075 43.377
58.209 -19.629 43.371
-89.296 -28.554 44.391
58.202 -19.176 43.404
58.201 -18.730 43.365
58.210 -18.285 43.392
58.214 -17.835 43.375
-89.300 -29.000 44.375
58.210 -17.385 43.360
58.216 -16.935 43.371
58.217 -16.485 43.380
58.222 -16.035 43.380
-89.296 -29.445 44.406
58.217 -15.590 43.404
58.223 -15.141 43.373
58.230 -14.694 43.341
58.225 -14.246 43.373
-89.295 -29.890 44.428
58.224 -13.799 43.359
58.225 -13.346 43.393
58.226 -12.901 43.388
58.233 -12.455 43.360
-89.295 -30.339 44.410
58.230 -12.009 43.373
58.232 -11.559 43.394
58.230 -11.110 43.395
58.234 -10.660 43.406
-89.299 -30.785 44.420
58.232 -10.210 43.403
58.230 -9.761 43.437
58.232 -9.314 43.434
58.239 -8.865 43.394
-89.305 -31.230 44.428
58.234 -8.415 43.392
58.240 -7.970 43.395
58.244 -7.520 43.377
58.240 -7.070 43.353
-89.290 -31.675 44.438
58.240 -6.625 43.410
58.246 -6.175 43.377
58.241 -5.726 43.394
58.248 -5.280 43.396
-89.298 -32.125 44.438
58.249 -4.830 43.396
58.241 -4.380 43.417
58.241 -3.935 43.420
58.249 -3.485 43.417
-89.315 -32.574 44.388
58.255 -3.040 43.397
58.254 -2.590 43.378
58.262 -2.140 43.381
58.255 -1.960 43.351
-89.313 -33.020 44.391
58.252 -1.695 43.399
58.257 -1.245 43.393
58.254 -0.795 43.399
58.261 -0.350 43.390
-89.311 -33.466 44.406
58.254 0.100 43.399
58.255 0.550 43.420
58.259 1.000 43.442
58.254 1.449 43.418
-89.311 -33.915 44.391
58.261 1.895 43.404
58.259 2.345 43.406
58.259 2.795 43.401
58.263 3.244 43.432
-89.311 -34.361 44.386
58.258 3.690 43.406
58.257 4.140 43.373
58.258 4.586 43.368
58.259 5.031 43.414
-89.314 -34.809 44.389
58.252 5.481 43.382
58.266 5.925 43.406
58.261 6.375 43.389
58.269 6.825 43.414
-89.302 -35.251 44.408
58.268 7.271 43.406
58.269 7.720 43.400
58.268 8.170 43.380
58.268 8.620 43.401
-89.302 -35.700 44.425
58.261 9.070 43.401
58.260 9.520 43.389
58.269 9.965 43.397
58.270 10.415 43.413
-89.310 -36.149 44.414
58.274 10.864 43.397
58.267 11.310 43.388
58.273 11.760 43.358
58.275 12.210 43.397
-89.308 -36.593 44.419
58.269 12.656 43.409
58.264 13.104 43.377
58.269 13.553 43.389
58.279 14.002 43.392
-89.302 -37.040 44.428
58.267 14.450 43.397
58.271 14.898 43.385
58.283 15.345 43.402
58.275 15.795 43.418
-89.315 -37.485 44.415
58.273 16.240 43.421
58.274 16.690 43.406
58.275 17.140 43.405
58.275 17.590 43.409
-89.316 -37.934 44.412
58.266 18.040 43.404
58.273 18.489 43.404
58.273 18.934 43.419
58.266 19.385 43.400
-89.317 -38.379 44.428
58.275 19.834 43.405
58.276 20.280 43.403
58.279 20.730 43.390
58.279 21.175 43.392
-89.323 -38.824 44.432
58.266 21.624 43.399
58.270 22.074 43.385
58.275 22.516 43.421
58.271 22.969 43.396
-89.309 -39.269 44.467
58.275 23.056 43.426
58.269 23.239 43.380
58.273 23.416 43.406
58.271 23.869 43.388
-89.310 -39.715 44.463
58.269 24.316 43.388
58.272 24.760 43.407
58.274 25.209 43.425
58.271 25.659 43.437
-89.305 -40.159 44.479
58.272 26.110 43.402
58.274 26.554 43.421
58.269 27.001 43.439
58.268 27.453 43.419
-89.317 -40.607 44.460
58.269 27.900 43.411
58.267 28.349 43.379
58.258 28.797 43.412
58.265 29.242 43.466
-89.316 -41.059 44.446
58.262 29.696 43.425
58.264 30.140 43.451
58.260 30.593 43.414
58.258 31.039 43.438
-89.316 -41.504 44.446
58.259 31.482 43.467
58.256 31.930 43.460
58.252 32.114 43.436
58.252 32.287 43.509
-89.316 -41.950 44.463
58.251 32.376 43.511
58.253 32.825 43.504
58.259 33.275 43.470
58.251 33.725 43.470
-89.312 -42.395 44.478
58.261 34.175 43.416
58.268 34.624 43.419
58.263 35.070 43.442
58.257 35.519 43.456
-89.311 -42.836 44.495
58.257 35.964 43.479
58.250 36.410 43.494
58.251 36.860 43.493
58.253 37.313 43.467
-89.318 -43.285 44.481
58.249 37.756 43.475
58.251 38.206 43.475
58.259 38.655 43.475
58.253 39.100 43.487
-89.311 -43.731 44.479
58.261 39.550 43.467
58.260 40.000 43.472
58.236 40.445 43.521
58.248 40.895 43.508
-89.306 -44.179 44.496
58.244 41.345 43.499
58.250 41.794 43.480
58.251 42.239 43.484
58.248 42.690 43.482
-89.321 -44.626 44.478
58.241 43.134 43.509
58.251 43.586 43.475
58.249 44.034 43.479
58.253 44.481 43.478
-89.320 -45.071 44.482
58.255 44.931 43.471
58.243 45.374 43.499
58.243 45.823 43.503
58.234 46.270 43.530
-89.312 -45.516 44.494
58.232 46.716 43.545
58.224 47.162 43.559
58.237 47.611 43.530
58.237 48.061 43.528
-89.320 -45.965 44.494
58.235 48.511 43.530
58.241 48.963 43.520
58.228 49.404 43.554
58.227 49.850 43.574
-89.313 -46.414 44.494
58.234 50.304 43.535
58.230 50.746 43.548
58.231 51.196 43.545
58.231 51.646 43.542
-89.318 -46.855 44.516
58.236 52.094 43.530
58.239 52.545 43.508
58.239 52.994 43.511
58.231 53.436 43.525
-89.321 -47.300 44.518
58.231 53.886 43.528
58.225 54.335 43.548
58.222 54.781 43.563
58.222 55.230 43.563
-89.319 -47.749 44.518
58.222 55.675 43.563
58.222 56.125 43.561
58.229 56.577 43.542
58.223 57.021 43.557
-89.321 -48.199 44.498
58.228 57.469 43.549
58.229 57.920 43.550
58.220 58.364 43.552
58.220 58.814 43.554
-89.323 -48.641 44.509
58.220 59.259 43.570
58.223 59.701 43.583
58.216 60.149 43.607
58.217 60.599 43.599
