58.764 40.304 -41.237
58.761 38.862 -41.243
58.773 33.171 -41.302
58.775 33.082 -41.294
58.797 30.292 -41.277
58.856 4.050 -41.345
58.894 -6.860 -41.280
58.896 -18.316 -41.291
-90.540 43.326 -41.870
58.895 -18.409 -41.293
58.912 -23.274 -41.239
58.889 -29.405 -41.307
58.524 69.603 -41.291
-90.560 43.783 -41.811
-90.564 43.874 -41.794
58.645 35.883 -41.274
58.779 -15.704 -41.247
-90.546 44.135 -41.876
58.781 -29.859 -41.253
58.780 -34.913 -41.232
58.493 37.596 -41.314
58.489 37.502 -41.341
58.490 37.411 -41.341
58.509 34.342 -41.321
58.509 34.252 -41.321
58.529 30.290 -41.299
58.522 30.198 -41.319
58.520 30.108 -41.323
58.520 30.020 -41.323
-90.567 45.219 -41.827
58.548 26.593 -41.281
-90.547 45.388 -41.906
-90.541 45.477 -41.923
58.629 -23.272 -41.300
58.642 -32.385 -41.280
58.363 41.108 -41.279
58.382 37.233 -41.279
58.383 36.514 -41.274
58.380 33.806 -41.304
-90.545 46.112 -41.868
58.396 33.629 -41.257
58.396 33.536 -41.255
58.405 30.293 -41.276
58.406 30.203 -41.274
58.406 30.113 -41.272
58.409 30.024 -41.269
58.406 25.505 -41.354
58.409 25.146 -41.347
58.406 25.056 -41.354
58.408 24.966 -41.350
58.421 24.337 -41.317
58.426 20.913 -41.318
58.494 -7.580 -41.305
58.503 -31.390 -41.334
58.503 -31.479 -41.334
58.476 -60.498 -41.386
58.133 71.139 -41.268
58.133 70.689 -41.272
58.131 70.239 -41.285
58.141 69.789 -41.268
58.139 69.335 -41.285
58.141 68.889 -41.268
58.144 68.440 -41.256
58.139 67.984 -41.270
58.143 67.534 -41.272
58.139 67.085 -41.268
58.139 66.633 -41.274
58.136 66.179 -41.287
58.136 65.730 -41.285
58.143 65.274 -41.287
58.144 64.824 -41.287
58.141 64.374 -41.298
58.146 63.920 -41.287
58.145 63.473 -41.272
58.147 63.026 -41.265
58.146 62.574 -41.286
58.147 62.119 -41.284
58.147 61.670 -41.284
58.146 61.220 -41.285
58.162 60.775 -41.260
58.154 60.315 -41.280
58.164 59.866 -41.280
58.156 59.415 -41.280
58.164 58.968 -41.268
58.165 58.512 -41.292
58.172 58.065 -41.268
58.164 57.613 -41.287
58.165 57.164 -41.285
58.166 56.711 -41.299
58.174 56.260 -41.298
58.176 55.811 -41.295
58.179 55.361 -41.283
58.181 54.909 -41.285
58.185 54.456 -41.295
-90.565 51.058 -41.880
58.184 54.005 -41.298
58.184 53.551 -41.299
58.185 53.100 -41.300
58.186 52.646 -41.316
58.188 52.196 -41.311
58.192 51.750 -41.295
58.195 51.304 -41.265
58.195 50.849 -41.283
58.194 50.399 -41.287
58.198 49.946 -41.295
58.198 49.495 -41.302
58.199 49.046 -41.298
58.199 48.591 -41.313
58.201 48.141 -41.311
58.201 47.696 -41.292
58.214 47.249 -41.265
58.211 46.791 -41.278
58.211 46.341 -41.280
58.211 45.887 -41.327
58.210 45.438 -41.290
58.219 44.989 -41.285
58.211 44.534 -41.330
58.209 44.080 -41.335
58.207 43.629 -41.344
58.207 43.537 -41.355
58.206 43.361 -41.341
58.214 43.181 -41.324
58.229 42.734 -41.270
58.221 42.280 -41.302
58.217 41.826 -41.324
58.218 41.380 -41.309
58.217 40.925 -41.324
58.229 40.475 -41.316
58.225 40.025 -41.333
58.226 39.576 -41.326
58.240 39.126 -41.291
58.232 38.675 -41.310
58.244 38.228 -41.265
58.243 37.775 -41.287
58.243 37.321 -41.310
58.241 36.871 -41.311
58.237 36.421 -41.326
58.241 35.967 -41.327
58.237 35.516 -41.339
58.242 35.066 -41.327
58.259 34.616 -41.277
58.257 34.166 -41.291
58.259 33.719 -41.284
58.249 33.261 -41.306
58.260 32.811 -41.296
58.259 32.364 -41.291
58.261 31.914 -41.296
58.260 31.459 -41.310
58.266 31.009 -41.303
58.267 30.559 -41.303
58.276 30.111 -41.284
58.273 29.659 -41.291
58.268 29.206 -41.323
58.283 28.758 -41.286
58.281 28.305 -41.295
58.286 27.858 -41.283
58.282 27.404 -41.310
58.284 26.955 -41.298
58.270 26.587 -41.334
58.279 26.500 -41.313
58.293 26.050 -41.302
58.287 25.596 -41.322
58.287 25.145 -41.324
58.283 24.696 -41.328
58.297 24.250 -41.298
58.287 23.792 -41.328
58.286 23.344 -41.331
58.294 22.894 -41.322
58.295 22.445 -41.318
58.301 21.991 -41.304
58.301 21.544 -41.295
58.315 21.095 -41.280
58.307 20.645 -41.280
58.314 20.195 -41.283
58.314 19.740 -41.287
58.314 19.290 -41.283
58.311 18.840 -41.300
58.310 18.390 -41.315
58.312 17.936 -41.309
58.317 17.486 -41.304
58.324 17.035 -41.283
58.322 16.585 -41.295
58.333 16.131 -41.263
58.332 15.680 -41.265
58.331 15.230 -41.268
58.328 14.780 -41.266
58.320 14.329 -41.289
58.333 13.875 -41.300
58.324 13.425 -41.316
58.326 12.976 -41.313
58.335 12.526 -41.311
58.328 12.075 -41.326
58.336 11.625 -41.315
58.336 11.175 -41.311
58.329 10.725 -41.327
58.339 10.270 -41.298
58.342 9.820 -41.287
58.340 9.370 -41.295
58.341 8.920 -41.298
58.344 8.470 -41.285
58.339 8.020 -41.299
58.347 7.565 -41.298
58.346 7.115 -41.278
58.353 6.664 -41.266
58.351 6.210 -41.298
58.346 5.761 -41.281
58.346 5.315 -41.287
58.351 4.865 -41.296
58.352 4.410 -41.299
58.347 3.960 -41.289
58.351 3.510 -41.318
58.351 3.060 -41.287
58.356 2.605 -41.300
58.360 2.155 -41.268
58.369 1.705 -41.265
58.359 1.255 -41.295
58.359 0.805 -41.292
58.359 0.354 -41.309
58.359 -0.096 -41.304
58.360 -0.546 -41.304
58.355 -1.000 -41.316
58.361 -1.451 -41.300
58.362 -1.905 -41.295
58.368 -2.355 -41.271
58.361 -2.805 -41.302
58.364 -3.255 -41.290
58.369 -3.705 -41.307
58.369 -4.155 -41.265
58.370 -4.605 -41.268
58.369 -5.060 -41.272
58.366 -5.510 -41.283
58.366 -5.960 -41.287
58.370 -6.410 -41.303
58.374 -6.860 -41.295
58.375 -7.310 -41.283
58.373 -7.760 -41.270
58.374 -8.215 -41.258
58.372 -8.665 -41.280
58.370 -9.120 -41.290
58.374 -9.570 -41.254
58.369 -10.020 -41.298
58.376 -10.470 -41.256
58.380 -10.924 -41.264
58.381 -11.370 -41.264
58.381 -11.820 -41.264
58.379 -12.270 -41.290
58.374 -12.725 -41.305
58.380 -13.175 -41.291
58.376 -13.625 -41.299
58.371 -14.075 -41.290
58.384 -14.526 -41.252
58.373 -14.975 -41.304
58.373 -15.426 -41.289
58.393 -15.881 -41.241
58.381 -16.327 -41.283
58.374 -16.781 -41.289
58.385 -17.231 -41.255
58.381 -17.685 -41.269
58.374 -18.135 -41.287
58.380 -18.590 -41.272
58.386 -19.040 -41.254
58.377 -19.485 -41.300
58.381 -19.936 -41.283
58.381 -20.389 -41.287
58.386 -20.844 -41.252
58.393 -21.294 -41.237
58.390 -21.740 -41.263
58.382 -22.191 -41.254
58.384 -22.645 -41.270
58.377 -23.095 -41.270
58.381 -23.545 -41.254
58.377 -23.999 -41.269
58.386 -24.450 -41.268
58.378 -24.900 -41.283
58.384 -25.350 -41.271
58.384 -25.800 -41.272
58.389 -26.255 -41.256
58.376 -26.704 -41.287
58.375 -27.154 -41.295
58.371 -27.600 -41.324
58.376 -28.055 -41.290
58.377 -28.505 -41.287
58.368 -28.952 -41.321
58.373 -29.405 -41.305
58.388 -29.859 -41.259
58.388 -30.310 -41.261
58.377 -30.760 -41.286
58.373 -31.206 -41.317
58.377 -31.656 -41.311
58.389 -32.113 -41.283
58.376 -32.560 -41.314
58.377 -33.010 -41.316
58.375 -33.465 -41.290
58.375 -33.916 -41.295
58.383 -34.369 -41.278
58.386 -34.820 -41.268
58.376 -35.269 -41.292
58.378 -35.719 -41.309
58.377 -36.171 -41.287
58.376 -36.621 -41.290
58.373 -37.070 -41.309
58.369 -37.519 -41.307
58.364 -37.970 -41.334
58.373 -38.420 -41.312
58.375 -38.871 -41.305
58.376 -39.321 -41.307
58.374 -39.775 -41.309
58.371 -40.226 -41.287
58.374 -40.680 -41.307
58.374 -41.129 -41.312
58.374 -41.581 -41.307
58.366 -42.031 -41.307
58.369 -42.483 -41.298
58.370 -42.934 -41.292
58.371 -43.384 -41.292
58.374 -43.835 -41.307
58.376 -44.285 -41.307
58.375 -44.735 -41.305
58.369 -45.185 -41.292
58.373 -45.636 -41.309
58.368 -46.085 -41.321
58.373 -46.535 -41.312
58.367 -46.986 -41.307
58.364 -47.441 -41.309
58.366 -47.890 -41.309
58.373 -48.340 -41.309
58.369 -48.790 -41.295
58.366 -49.240 -41.327
58.362 -49.690 -41.338
58.364 -50.143 -41.334
58.362 -50.591 -41.353
58.365 -51.044 -41.330
58.366 -51.496 -41.323
58.356 -51.945 -41.325
58.361 -52.395 -41.325
58.364 -52.850 -41.310
58.362 -53.301 -41.323
58.360 -53.750 -41.323
58.355 -54.196 -41.345
58.354 -54.647 -41.350
58.355 -55.099 -41.347
58.356 -55.551 -41.340
58.355 -56.000 -41.330
58.347 -56.446 -41.357
58.361 -56.909 -41.312
58.361 -57.356 -41.322
58.361 -57.805 -41.325
58.347 -58.252 -41.338
58.348 -58.528 -41.304
58.355 -58.705 -41.324
58.356 -59.155 -41.343
58.353 -59.605 -41.343
58.352 -60.049 -41.369
58.356 -60.504 -41.345
58.355 -60.959 -41.344
58.362 -61.406 -41.342
58.359 -61.859 -41.327
58.354 -62.306 -41.345
58.354 -62.759 -41.347
58.355 -63.209 -41.347
58.355 -63.651 -41.376
58.361 -64.109 -41.350
58.354 -64.561 -41.345
58.355 -65.010 -41.347
58.355 -65.461 -41.345
58.351 -65.910 -41.347
58.351 -66.359 -41.347
58.004 71.236 -41.246
57.999 71.048 -41.289
57.997 70.963 -41.258
58.074 43.807 -41.357
58.120 34.795 -41.298
58.161 26.503 -41.276
58.159 22.892 -41.341
58.244 -17.862 -41.313
58.260 -22.013 -41.254
58.237 -32.557 -41.344
57.870 70.959 -41.276
57.871 70.772 -41.327
57.996 34.346 -41.296
57.995 33.624 -41.318
58.045 24.969 -41.279
58.057 20.824 -41.272
58.071 13.608 -41.277
58.126 -10.744 -41.229
58.132 -26.525 -41.251
57.868 36.059 -41.283
57.874 29.837 -41.354
57.893 26.050 -41.340
57.934 12.705 -41.342
57.714 40.839 -41.275
57.700 39.571 -41.356
57.717 35.693 -41.352
57.724 34.972 -41.349
57.779 21.630 -41.338
57.869 -11.194 -41.244
57.869 -11.283 -41.246
57.866 -12.905 -41.269
57.883 -20.485 -41.201
57.866 -28.054 -41.289
57.837 -58.791 -41.369
57.840 -58.878 -41.384
57.844 -58.968 -41.386
57.482 71.139 -41.271
57.484 70.689 -41.272
57.481 70.239 -41.287
57.487 69.784 -41.290
57.489 69.334 -41.289
57.490 68.886 -41.283
57.489 68.434 -41.290
57.489 67.979 -41.294
57.489 67.528 -41.311
57.489 67.080 -41.305
57.489 66.630 -41.305
57.489 66.175 -41.305
57.491 65.723 -41.311
57.493 65.273 -41.296
57.499 64.820 -41.305
57.492 64.374 -41.304
57.499 63.919 -41.307
57.496 63.471 -41.292
57.499 63.021 -41.298
57.498 62.571 -41.298
57.504 62.119 -41.291
57.502 61.668 -41.293
57.502 61.218 -41.294
57.513 60.769 -41.283
57.514 60.315 -41.285
57.514 59.864 -41.287
57.511 59.411 -41.313
57.510 58.964 -41.304
57.514 58.511 -41.300
57.517 58.061 -41.295
57.518 57.609 -41.316
57.519 57.154 -41.338
57.520 56.705 -41.333
57.527 56.258 -41.303
57.534 55.810 -41.283
57.534 55.359 -41.302
57.534 54.909 -41.285
57.534 54.455 -41.299
57.536 54.000 -41.316
57.534 53.550 -41.304
57.534 53.099 -41.314
57.542 52.649 -41.302
57.549 52.200 -41.283
57.544 51.754 -41.265
57.545 51.301 -41.283
57.549 50.846 -41.302
57.549 50.395 -41.302
57.549 49.945 -41.302
57.551 49.495 -41.313
57.549 49.044 -41.320
57.548 48.589 -41.322
57.550 48.141 -41.316
57.563 47.695 -41.285
57.564 47.245 -41.283
57.557 46.790 -41.298
57.566 46.341 -41.278
57.564 45.890 -41.299
57.569 45.434 -41.318
57.561 44.985 -41.333
57.559 44.534 -41.339
57.571 44.080 -41.315
57.573 43.630 -41.320
57.574 43.181 -41.307
57.583 42.730 -41.299
57.584 42.280 -41.283
57.581 41.830 -41.298
57.576 41.376 -41.328
57.581 40.926 -41.297
57.592 40.841 -41.265
57.581 40.475 -41.318
57.575 40.023 -41.338
57.585 39.576 -41.315
57.584 39.121 -41.323
57.582 38.671 -41.333
57.592 38.225 -41.307
57.592 37.775 -41.310
57.590 37.321 -41.315
57.592 36.871 -41.328
57.602 36.423 -41.286
57.601 35.969 -41.313
-90.257 -50.022 -41.469
57.586 35.511 -41.365
57.602 35.068 -41.307
57.594 34.611 -41.327
57.609 34.164 -41.313
57.618 33.719 -41.282
57.609 33.261 -41.301
57.614 32.810 -41.315
57.609 32.360 -41.346
57.609 31.909 -41.349
57.609 31.455 -41.348
57.621 31.009 -41.322
57.627 30.560 -41.300
57.626 30.110 -41.315
57.630 29.656 -41.315
57.629 29.205 -41.315
57.632 28.755 -41.303
57.632 28.306 -41.296
57.635 27.855 -41.301
57.631 27.404 -41.318
57.631 26.955 -41.308
57.631 26.499 -41.329
57.645 26.051 -41.306
57.648 25.596 -41.318
57.648 25.146 -41.316
57.651 24.699 -41.287
57.651 24.250 -41.283
57.641 23.795 -41.304
57.644 23.344 -41.321
57.632 22.891 -41.366
57.645 22.445 -41.335
57.654 21.991 -41.318
57.657 21.541 -41.309
57.660 21.094 -41.304
57.664 20.641 -41.309
57.666 20.195 -41.278
57.656 19.739 -41.330
57.671 19.290 -41.295
57.666 18.840 -41.283
57.671 18.391 -41.292
57.665 17.935 -41.318
57.663 17.485 -41.326
57.674 17.034 -41.301
57.675 16.584 -41.302
57.671 16.126 -41.333
57.673 15.680 -41.311
57.679 15.230 -41.292
57.673 14.780 -41.302
57.676 14.329 -41.316
57.681 13.875 -41.298
57.676 13.425 -41.318
57.675 12.975 -41.335
57.686 12.527 -41.309
57.689 12.075 -41.299
57.689 11.625 -41.304
57.686 11.175 -41.311
57.689 10.725 -41.301
57.686 10.270 -41.285
57.691 9.820 -41.298
57.692 9.370 -41.298
57.690 8.920 -41.300
57.693 8.470 -41.295
57.696 8.020 -41.287
57.704 7.565 -41.285
57.697 7.115 -41.309
57.698 6.664 -41.304
57.700 6.210 -41.299
57.705 5.761 -41.313
57.701 5.315 -41.297
57.701 4.865 -41.300
57.700 4.410 -41.320
57.702 3.960 -41.318
57.708 3.510 -41.322
57.710 3.060 -41.314
57.709 2.605 -41.295
57.711 2.155 -41.285
57.711 1.705 -41.309
57.714 1.255 -41.303
57.710 0.805 -41.319
57.713 0.355 -41.325
57.714 -0.095 -41.321
57.703 -0.546 -41.347
57.719 -1.000 -41.290
57.721 -1.450 -41.283
57.721 -1.905 -41.285
57.717 -2.355 -41.311
57.722 -2.805 -41.280
57.721 -3.255 -41.287
57.729 -3.705 -41.270
57.721 -4.155 -41.285
57.722 -4.605 -41.278
57.729 -5.060 -41.268
57.734 -5.510 -41.261
57.727 -5.960 -41.285
57.722 -6.410 -41.298
57.727 -6.860 -41.287
57.729 -7.310 -41.298
57.732 -7.760 -41.272
57.726 -8.215 -41.295
57.729 -8.665 -41.285
57.731 -9.120 -41.280
57.726 -9.570 -41.303
57.726 -10.020 -41.295
57.741 -10.470 -41.239
57.730 -10.921 -41.283
57.729 -11.370 -41.285
57.728 -11.820 -41.323
57.726 -12.270 -41.355
57.731 -12.725 -41.314
57.734 -13.175 -41.263
57.732 -13.625 -41.283
57.727 -14.075 -41.297
57.724 -14.255 -41.309
57.723 -14.345 -41.311
57.724 -14.435 -41.309
57.727 -14.526 -41.301
57.743 -14.980 -41.251
57.741 -15.430 -41.261
57.744 -15.880 -41.250
57.739 -16.326 -41.268
57.741 -16.780 -41.284
57.736 -17.230 -41.299
57.739 -17.685 -41.275
57.737 -18.135 -41.278
57.744 -18.590 -41.256
57.731 -19.035 -41.287
57.750 -19.489 -41.246
57.736 -19.936 -41.266
57.737 -20.394 -41.247
57.741 -20.484 -41.235
57.739 -20.844 -41.244
57.737 -21.290 -41.264
57.735 -21.740 -41.272
57.734 -22.191 -41.278
57.734 -22.645 -41.287
57.736 -23.095 -41.271
57.737 -23.545 -41.259
57.729 -23.997 -41.281
57.742 -24.450 -41.254
57.733 -24.900 -41.300
57.745 -25.353 -41.251
57.739 -25.801 -41.259
57.736 -26.255 -41.283
57.737 -26.705 -41.285
57.732 -27.150 -41.314
57.726 -27.600 -41.338
57.739 -28.054 -41.284
57.729 -28.505 -41.307
57.729 -28.956 -41.286
57.747 -29.409 -41.247
57.736 -29.586 -41.291
57.726 -29.856 -41.290
57.730 -30.310 -41.285
57.731 -30.756 -41.305
57.733 -31.207 -41.300
57.743 -31.659 -41.275
57.735 -32.111 -41.304
57.734 -32.559 -41.321
57.724 -33.005 -41.345
57.725 -33.460 -41.347
57.724 -33.910 -41.338
57.739 -34.369 -41.284
57.735 -34.820 -41.272
57.730 -35.266 -41.307
57.734 -35.721 -41.294
57.729 -36.170 -41.323
57.725 -36.620 -41.305
57.726 -37.071 -41.303
57.726 -37.520 -41.303
57.726 -37.972 -41.300
57.732 -38.425 -41.286
57.727 -38.871 -41.307
57.729 -39.320 -41.321
57.721 -39.771 -41.342
57.727 -40.224 -41.330
57.722 -40.675 -41.340
57.721 -41.125 -41.340
57.724 -41.580 -41.312
57.726 -42.030 -41.312
57.726 -42.480 -41.314
57.729 -42.930 -41.323
57.730 -43.384 -41.295
57.726 -43.835 -41.307
57.725 -44.285 -41.310
57.725 -44.735 -41.310
57.725 -45.185 -41.310
57.725 -45.636 -41.314
57.724 -46.085 -41.316
57.721 -46.535 -41.338
57.721 -46.982 -41.359
57.719 -47.436 -41.345
57.729 -47.889 -41.324
57.729 -48.339 -41.324
57.726 -48.790 -41.312
57.721 -49.240 -41.340
57.720 -49.689 -41.345
57.719 -50.141 -41.342
57.718 -50.594 -41.327
57.719 -51.041 -41.342
57.718 -51.495 -41.327
57.713 -51.944 -41.342
57.716 -52.396 -41.321
57.715 -52.845 -41.325
57.711 -53.303 -41.314
57.714 -53.749 -41.330
57.706 -54.196 -41.342
57.713 -54.649 -41.330
57.713 -55.100 -41.330
57.706 -55.550 -41.342
57.702 -55.996 -41.369
57.702 -56.445 -41.372
57.716 -56.905 -41.323
57.706 -57.351 -41.345
57.708 -57.801 -41.340
57.706 -58.250 -41.347
57.711 -58.704 -41.331
57.715 -59.154 -41.347
57.709 -59.602 -41.357
57.706 -60.054 -41.350
57.705 -60.498 -41.376
57.702 -60.951 -41.379
57.709 -61.404 -41.369
57.702 -61.851 -41.376
57.702 -62.301 -41.374
57.708 -62.755 -41.369
57.709 -63.206 -41.362
57.701 -63.651 -41.376
57.704 -64.104 -41.367
57.704 -64.556 -41.379
57.701 -65.005 -41.381
57.705 -65.456 -41.378
57.704 -65.910 -41.365
57.709 -66.359 -41.347
57.474 37.053 -41.300
57.548 19.110 -41.272
57.546 19.020 -41.274
57.621 -24.813 -41.251
57.614 -29.049 -41.261
57.325 43.548 -41.274
57.308 41.013 -41.342
57.384 26.774 -41.279
57.468 -18.856 -41.307
57.470 -22.821 -41.309
57.473 -25.798 -41.307
57.484 -27.782 -41.287
57.490 -29.049 -41.256
57.475 -35.903 -41.287
57.194 36.685 -41.373
57.221 35.517 -41.325
57.229 34.525 -41.291
57.244 30.740 -41.290
57.241 25.505 -41.373
57.289 18.392 -41.277
57.298 5.221 -41.356
57.311 3.420 -41.340
57.310 3.330 -41.342
57.334 -6.407 -41.327
57.342 -6.590 -41.268
57.336 -19.125 -41.312
57.344 -20.931 -41.293
57.345 -25.440 -41.292
57.341 -26.791 -41.324
57.341 -28.236 -41.307
57.359 -31.029 -41.253
57.360 -31.120 -41.248
57.351 -32.112 -41.289
57.074 41.019 -41.276
57.048 40.832 -41.342
57.085 37.509 -41.279
57.081 35.514 -41.343
57.110 30.738 -41.310
57.140 24.704 -41.274
57.175 4.681 -41.316
57.220 -20.208 -41.256
57.231 -29.229 -41.247
57.213 -31.566 -41.314
57.222 -39.235 -41.263
57.220 -39.324 -41.271
56.826 71.135 -41.305
56.831 70.681 -41.318
56.827 70.234 -41.309
56.831 69.780 -41.307
56.836 69.331 -41.312
56.842 68.884 -41.287
56.841 68.434 -41.292
56.840 67.980 -41.287
56.841 67.530 -41.287
56.841 67.079 -41.303
56.840 66.630 -41.300
56.840 66.174 -41.305
56.841 65.724 -41.303
56.841 65.274 -41.303
56.847 64.821 -41.318
56.846 64.379 -41.276
56.853 63.929 -41.255
56.851 63.475 -41.284
56.857 63.024 -41.283
56.851 62.569 -41.302
56.853 62.114 -41.314
56.856 61.665 -41.315
56.846 61.211 -41.331
56.859 60.765 -41.304
56.861 60.315 -41.284
56.864 59.869 -41.268
56.869 59.415 -41.283
56.862 58.961 -41.309
56.866 58.509 -41.304
56.862 58.060 -41.311
56.869 57.609 -41.314
56.866 57.160 -41.304
56.863 56.706 -41.331
56.876 56.260 -41.300
56.879 55.801 -41.333
56.879 55.356 -41.316
56.881 54.901 -41.315
56.886 54.455 -41.300
56.882 54.005 -41.297
56.884 53.550 -41.313
56.886 53.099 -41.320
56.885 52.645 -41.333
56.893 52.200 -41.297
56.899 51.749 -41.302
56.892 51.295 -41.333
56.892 50.841 -41.333
56.896 50.390 -41.350
56.899 49.945 -41.315
56.896 49.490 -41.347
56.901 49.040 -41.335
56.896 48.586 -41.350
56.901 48.139 -41.338
56.911 47.690 -41.315
56.911 47.240 -41.333
56.910 46.786 -41.333
56.920 46.340 -41.305
56.919 45.886 -41.333
56.917 45.430 -41.339
56.917 44.984 -41.341
56.916 44.531 -41.346
56.921 44.080 -41.315
56.934 43.635 -41.293
56.934 43.184 -41.300
56.929 42.729 -41.315
56.914 42.275 -41.359
56.932 41.831 -41.294
56.938 41.380 -41.303
56.933 40.926 -41.314
56.931 40.474 -41.322
56.939 40.029 -41.298
56.935 39.576 -41.313
56.946 39.124 -41.292
56.945 38.675 -41.311
56.946 38.225 -41.306
56.947 37.775 -41.310
56.954 37.325 -41.282
56.954 36.871 -41.298
56.950 36.419 -41.336
56.946 35.964 -41.351
56.943 35.511 -41.371
56.951 35.065 -41.327
56.954 34.611 -41.327
56.959 34.161 -41.330
56.964 33.714 -41.321
56.953 33.256 -41.358
56.958 32.806 -41.351
56.971 32.361 -41.319
56.961 31.909 -41.349
56.968 31.455 -41.351
56.969 31.006 -41.346
56.976 30.556 -41.332
56.986 30.109 -41.305
56.972 29.654 -41.346
56.980 29.205 -41.334
56.984 28.755 -41.318
56.979 28.305 -41.342
56.980 27.854 -41.337
56.992 27.404 -41.309
56.979 26.951 -41.344
57.006 26.505 -41.271
56.990 26.055 -41.333
56.993 25.600 -41.348
56.999 25.150 -41.318
57.013 24.704 -41.278
57.002 24.249 -41.303
57.006 23.800 -41.286
57.004 23.345 -41.310
57.007 22.895 -41.301
57.001 22.445 -41.303
57.007 21.991 -41.327
56.993 21.540 -41.349
57.017 21.094 -41.289
57.013 20.640 -41.320
57.011 20.190 -41.353
57.013 19.738 -41.340
57.008 19.286 -41.359
57.013 18.839 -41.342
57.013 18.390 -41.341
57.025 17.935 -41.313
57.030 17.486 -41.298
57.027 17.036 -41.306
57.029 16.586 -41.316
57.028 16.134 -41.320
57.029 15.685 -41.320
57.034 15.235 -41.306
57.021 14.870 -41.350
57.028 14.780 -41.333
57.027 14.330 -41.312
57.033 13.875 -41.299
57.031 13.425 -41.304
57.039 12.979 -41.306
57.034 12.525 -41.338
57.036 12.075 -41.330
57.035 11.625 -41.320
57.044 11.175 -41.315
57.048 10.725 -41.285
57.042 10.270 -41.295
57.048 9.820 -41.285
57.045 9.370 -41.311
57.049 8.920 -41.287
57.050 8.470 -41.298
57.055 8.020 -41.314
57.054 7.565 -41.333
57.061 7.115 -41.318
57.055 6.664 -41.318
57.055 6.210 -41.311
57.059 5.761 -41.306
57.049 5.314 -41.320
57.050 4.861 -41.333
57.047 4.410 -41.362
57.055 3.960 -41.350
57.057 3.510 -41.302
57.061 3.060 -41.318
57.064 2.605 -41.301
57.061 2.155 -41.285
57.064 1.705 -41.300
57.064 1.255 -41.298
57.065 0.805 -41.306
57.059 0.355 -41.323
57.061 -0.095 -41.320
57.064 -0.546 -41.322
57.067 -1.000 -41.316
57.066 -1.450 -41.318
57.066 -1.905 -41.319
57.070 -2.350 -41.307
57.068 -2.800 -41.313
57.067 -3.255 -41.318
57.066 -3.705 -41.314
57.079 -4.155 -41.268
57.079 -4.605 -41.270
57.080 -5.060 -41.285
57.081 -5.510 -41.283
57.079 -5.960 -41.305
57.080 -6.410 -41.304
57.078 -6.860 -41.309
57.082 -7.310 -41.300
57.084 -7.760 -41.275
57.082 -8.210 -41.292
57.074 -8.660 -41.307
57.083 -9.115 -41.290
57.081 -9.565 -41.309
57.071 -10.015 -41.318
57.088 -10.470 -41.256
57.089 -10.920 -41.254
57.085 -11.370 -41.300
57.080 -11.820 -41.319
57.086 -12.270 -41.325
57.086 -12.725 -41.311
57.084 -13.175 -41.304
57.084 -13.625 -41.307
57.084 -14.074 -41.289
57.098 -14.526 -41.251
57.091 -14.979 -41.268
57.090 -15.429 -41.277
57.095 -15.876 -41.285
57.091 -16.326 -41.272
57.092 -16.780 -41.270
57.092 -17.230 -41.292
57.089 -17.685 -41.290
57.090 -18.135 -41.272
57.084 -18.589 -41.294
57.089 -19.035 -41.289
57.089 -19.485 -41.274
57.086 -19.935 -41.270
57.085 -20.390 -41.276
57.090 -20.840 -41.285
57.089 -21.290 -41.285
57.095 -21.740 -41.259
57.084 -22.191 -41.280
57.083 -22.640 -41.324
57.088 -23.091 -41.314
57.073 -23.450 -41.349
57.079 -23.541 -41.319
57.103 -24.000 -41.259
57.094 -24.450 -41.270
57.092 -24.900 -41.280
57.097 -25.351 -41.252
57.094 -25.800 -41.275
57.089 -26.254 -41.292
57.091 -26.705 -41.287
57.088 -27.150 -41.314
57.089 -27.601 -41.311
57.084 -28.055 -41.283
57.089 -28.505 -41.292
57.090 -28.955 -41.287
57.091 -29.406 -41.288
57.096 -29.856 -41.271
57.096 -30.310 -41.271
57.096 -30.760 -41.264
57.089 -31.209 -41.290
57.084 -31.656 -41.326
57.081 -32.109 -41.317
57.086 -32.559 -41.322
57.088 -33.010 -41.312
57.090 -33.464 -41.292
57.077 -33.915 -41.305
57.082 -34.365 -41.323
57.084 -34.816 -41.314
57.079 -35.266 -41.305
57.086 -35.720 -41.292
57.079 -36.169 -41.326
57.081 -36.619 -41.320
57.084 -37.070 -41.312
57.078 -37.520 -41.313
57.081 -37.971 -41.319
57.077 -38.421 -41.307
57.083 -38.874 -41.297
57.073 -38.961 -41.331
57.088 -39.324 -41.282
57.081 -39.775 -41.323
57.079 -40.224 -41.327
57.072 -40.670 -41.350
57.074 -41.120 -41.360
57.076 -41.579 -41.312
57.077 -42.026 -41.309
57.077 -42.475 -41.326
57.085 -42.935 -41.290
57.076 -43.380 -41.310
57.080 -43.835 -41.321
57.081 -44.285 -41.317
57.084 -44.735 -41.295
57.075 -45.185 -41.310
57.071 -45.635 -41.340
57.076 -46.085 -41.314
57.072 -46.535 -41.338
57.070 -46.984 -41.330
57.080 -47.436 -41.340
57.080 -47.889 -41.324
57.081 -48.335 -41.325
57.080 -48.785 -41.327
57.071 -49.239 -41.347
57.065 -49.684 -41.381
57.069 -50.136 -41.362
57.067 -50.586 -41.342
57.068 -51.044 -41.323
57.067 -51.495 -41.325
57.062 -51.940 -41.360
57.073 -52.396 -41.323
57.064 -52.844 -41.347
57.061 -53.296 -41.360
57.061 -53.744 -41.367
57.064 -54.195 -41.353
57.065 -54.649 -41.327
57.064 -55.100 -41.345
57.059 -55.546 -41.362
57.061 -55.996 -41.372
57.060 -56.445 -41.378
57.061 -56.899 -41.367
57.065 -57.350 -41.350
57.068 -57.800 -41.362
57.060 -58.246 -41.376
57.059 -58.696 -41.376
57.064 -59.155 -41.347
57.062 -59.608 -41.333
57.060 -60.051 -41.360
57.064 -60.502 -41.355
57.066 -60.958 -41.353
57.061 -61.404 -41.361
57.060 -61.854 -41.365
57.060 -62.299 -41.382
57.060 -62.755 -41.365
57.059 -63.205 -41.380
57.056 -63.654 -41.363
57.058 -64.109 -41.349
57.052 -64.560 -41.349
57.054 -65.009 -41.361
57.056 -65.460 -41.360
57.061 -65.911 -41.340
57.062 -66.364 -41.327
56.697 71.314 -41.294
56.829 35.338 -41.327
56.844 34.705 -41.291
56.856 29.839 -41.309
56.856 29.748 -41.309
56.856 29.656 -41.309
56.866 28.216 -41.306
56.863 22.171 -41.366
56.880 20.911 -41.326
56.910 17.129 -41.272
56.922 4.680 -41.372
56.947 -23.724 -41.329
56.966 -28.778 -41.268
56.964 -31.932 -41.289
56.949 -34.816 -41.334
56.946 -36.076 -41.346
56.663 44.803 -41.331
56.669 39.207 -41.356
56.701 35.518 -41.327
56.713 31.999 -41.331
56.695 31.726 -41.376
56.736 28.217 -41.306
56.715 28.032 -41.373
56.743 25.689 -41.324
56.730 24.700 -41.358
56.776 17.129 -41.274
56.794 4.681 -41.353
56.816 -22.462 -41.329
56.814 -23.724 -41.338
56.841 -28.779 -41.259
56.819 -31.652 -41.353
56.816 -39.317 -41.346
56.534 40.112 -41.357
56.582 31.729 -41.327
56.612 25.690 -41.313
56.615 23.164 -41.314
56.604 21.986 -41.389
56.603 21.896 -41.394
56.613 20.186 -41.393
56.689 -34.001 -41.331
56.700 -36.079 -41.306
56.454 27.221 -41.369
56.518 14.960 -41.279
56.550 2.245 -41.264
56.587 -28.779 -41.232
56.181 71.131 -41.321
56.184 70.680 -41.338
56.182 70.231 -41.333
56.180 69.776 -41.335
56.176 69.330 -41.320
56.186 68.879 -41.321
56.185 68.430 -41.318
56.192 67.978 -41.305
56.193 67.529 -41.303
56.194 67.076 -41.313
56.194 66.626 -41.318
56.198 66.171 -41.332
56.189 65.716 -41.353
56.190 65.266 -41.355
56.192 64.816 -41.363
56.204 64.371 -41.319
56.204 63.916 -41.337
56.206 63.471 -41.314
56.203 63.016 -41.328
56.212 62.565 -41.318
56.205 62.111 -41.328
56.205 61.661 -41.333
56.212 61.212 -41.330
56.206 60.761 -41.333
56.208 60.306 -41.330
56.217 59.857 -41.328
56.215 59.410 -41.335
56.219 58.960 -41.322
56.216 58.502 -41.347
56.217 58.051 -41.357
56.229 57.610 -41.313
56.228 57.159 -41.320
56.229 56.706 -41.330
56.226 56.249 -41.349
56.229 55.800 -41.347
56.231 55.354 -41.335
56.230 54.896 -41.353
56.239 54.450 -41.335
56.244 54.000 -41.315
56.236 53.550 -41.313
56.243 53.099 -41.316
56.247 52.645 -41.330
56.244 52.195 -41.318
56.250 51.750 -41.299
56.253 51.295 -41.318
56.252 50.841 -41.337
56.254 50.394 -41.318
56.259 49.945 -41.311
56.259 49.495 -41.306
56.255 49.041 -41.333
56.253 48.589 -41.339
56.254 48.139 -41.339
56.260 47.691 -41.318
56.265 47.244 -41.303
56.268 46.789 -41.319
56.268 46.339 -41.318
56.265 45.882 -41.362
56.258 45.427 -41.365
56.257 45.246 -41.388
56.260 44.981 -41.361
56.269 44.534 -41.337
56.283 44.084 -41.302
56.272 43.631 -41.329
56.285 43.181 -41.314
56.282 42.728 -41.324
56.284 42.278 -41.314
56.275 41.826 -41.339
56.281 41.379 -41.334
56.289 40.925 -41.329
56.289 40.475 -41.332
56.286 40.025 -41.329
56.294 39.575 -41.320
56.284 39.117 -41.358
56.283 38.761 -41.358
56.283 38.670 -41.361
56.299 38.224 -41.318
56.295 37.771 -41.337
56.303 37.320 -41.337
56.287 36.861 -41.401
56.293 36.411 -41.406
56.292 35.961 -41.380
56.299 35.512 -41.357
56.305 35.064 -41.347
56.307 34.610 -41.359
56.311 34.160 -41.349
56.319 33.714 -41.327
56.319 33.260 -41.303
56.323 32.810 -41.322
56.324 32.360 -41.320
56.324 31.910 -41.322
56.329 31.455 -41.335
56.324 31.005 -41.337
56.334 30.559 -41.319
56.336 30.109 -41.318
56.323 29.655 -41.349
56.341 29.205 -41.312
56.332 28.754 -41.341
56.328 28.304 -41.346
56.341 27.854 -41.341
56.344 27.400 -41.341
56.324 27.220 -41.378
56.344 26.955 -41.305
56.343 26.501 -41.334
56.344 26.054 -41.334
56.344 25.599 -41.347
56.353 25.150 -41.300
56.359 24.701 -41.317
56.357 24.246 -41.322
56.352 23.795 -41.333
56.357 23.344 -41.309
56.356 22.895 -41.320
56.359 22.444 -41.337
56.360 21.991 -41.346
56.357 21.540 -41.338
56.365 21.090 -41.335
56.365 20.640 -41.342
56.361 20.189 -41.371
56.364 19.735 -41.357
56.361 19.286 -41.366
56.364 18.836 -41.350
56.374 18.390 -41.318
56.374 17.935 -41.335
56.380 17.485 -41.311
56.381 17.036 -41.316
56.377 16.586 -41.328
56.381 16.134 -41.318
56.384 15.684 -41.335
56.381 15.235 -41.318
56.383 14.780 -41.308
56.386 14.330 -41.311
56.384 13.875 -41.302
56.385 13.425 -41.318
56.390 13.065 -41.340
56.397 12.976 -41.328
56.390 12.525 -41.338
56.388 12.074 -41.357
56.394 11.625 -41.338
56.391 11.175 -41.347
56.394 10.725 -41.316
56.394 10.270 -41.320
56.396 9.820 -41.313
56.398 9.370 -41.304
56.397 8.920 -41.327
56.411 8.470 -41.280
56.411 8.020 -41.298
56.409 7.565 -41.306
56.406 7.115 -41.315
56.409 6.664 -41.308
56.398 6.210 -41.352
56.393 5.760 -41.364
56.404 5.315 -41.302
56.405 4.862 -41.326
56.409 4.410 -41.311
56.410 3.960 -41.311
56.420 3.510 -41.290
56.411 3.060 -41.318
56.410 2.605 -41.318
56.414 2.155 -41.298
56.415 1.705 -41.303
56.412 1.255 -41.338
56.414 0.805 -41.327
56.416 0.355 -41.327
56.417 -0.095 -41.342
56.421 -0.546 -41.307
56.421 -1.000 -41.307
56.423 -1.450 -41.303
56.425 -1.905 -41.318
56.415 -2.350 -41.350
56.421 -2.800 -41.338
56.424 -3.255 -41.338
56.424 -3.705 -41.322
56.429 -4.155 -41.309
56.423 -4.605 -41.304
56.441 -5.060 -41.257
56.426 -5.510 -41.314
56.434 -5.960 -41.290
56.430 -6.410 -41.300
56.429 -6.860 -41.309
56.429 -7.310 -41.305
56.435 -7.760 -41.287
56.432 -8.210 -41.294
56.431 -8.660 -41.318
56.433 -9.115 -41.307
56.432 -9.565 -41.313
56.441 -10.016 -41.272
56.435 -10.470 -41.287
56.444 -10.919 -41.285
56.442 -11.370 -41.287
56.431 -11.820 -41.335
56.432 -12.270 -41.333
56.435 -12.725 -41.305
56.438 -13.175 -41.300
56.437 -13.625 -41.283
56.435 -14.075 -41.287
56.451 -14.526 -41.266
56.444 -14.977 -41.278
56.441 -15.429 -41.270
56.444 -15.876 -41.287
56.450 -16.326 -41.268
56.445 -16.780 -41.284
56.445 -17.230 -41.304
56.439 -17.684 -41.307
56.431 -18.134 -41.307
56.440 -18.589 -41.292
56.439 -19.035 -41.289
56.446 -19.485 -41.289
56.442 -19.936 -41.303
56.432 -20.389 -41.312
56.436 -20.840 -41.316
56.444 -21.290 -41.275
56.433 -21.740 -41.303
56.444 -22.191 -41.272
56.436 -22.641 -41.317
56.440 -23.091 -41.307
56.434 -23.540 -41.328
56.438 -23.995 -41.319
56.429 -24.444 -41.342
56.441 -24.899 -41.312
56.449 -25.350 -41.287
56.445 -25.800 -41.275
56.448 -26.254 -41.290
56.448 -26.704 -41.290
56.443 -27.151 -41.304
56.449 -27.243 -41.287
56.442 -27.600 -41.328
56.441 -28.054 -41.309
56.449 -28.505 -41.290
56.452 -28.959 -41.259
56.446 -29.405 -41.278
56.440 -29.856 -41.287
56.444 -30.310 -41.275
56.444 -30.760 -41.272
56.449 -31.209 -41.292
56.441 -31.656 -41.307
56.441 -32.110 -41.307
56.440 -32.560 -41.314
56.439 -33.010 -41.309
56.441 -33.464 -41.312
56.438 -33.914 -41.311
56.441 -34.366 -41.321
56.436 -34.816 -41.305
56.436 -35.266 -41.309
56.435 -35.719 -41.311
56.428 -36.166 -41.355
56.434 -36.616 -41.342
56.434 -37.066 -41.342
56.426 -37.515 -41.357
56.438 -37.970 -41.330
56.439 -38.420 -41.323
56.435 -38.870 -41.314
56.440 -39.320 -41.321
56.439 -39.774 -41.330
56.430 -40.220 -41.345
56.438 -40.670 -41.342
56.426 -41.116 -41.376
56.426 -41.571 -41.376
56.428 -42.024 -41.350
56.429 -42.475 -41.327
56.436 -42.931 -41.305
56.434 -43.383 -41.299
56.431 -43.835 -41.325
56.430 -44.281 -41.342
56.430 -44.730 -41.342
56.431 -45.180 -41.345
56.429 -45.634 -41.347
56.429 -46.084 -41.347
56.429 -46.533 -41.353
56.425 -46.980 -41.362
56.429 -47.435 -41.345
56.434 -47.889 -41.316
56.431 -48.336 -41.321
56.429 -48.785 -41.327
56.423 -49.236 -41.353
56.421 -49.686 -41.364
56.420 -50.139 -41.350
56.419 -50.584 -41.369
56.417 -51.038 -41.369
56.419 -51.489 -41.352
56.419 -51.939 -41.352
56.428 -52.394 -41.345
56.426 -52.844 -41.350
56.419 -53.294 -41.367
56.414 -53.741 -41.378
56.413 -54.190 -41.382
56.420 -54.645 -41.360
56.419 -55.099 -41.350
56.413 -55.544 -41.381
56.414 -55.994 -41.385
56.414 -56.444 -41.381
56.419 -56.899 -41.367
56.420 -57.350 -41.362
56.419 -57.800 -41.365
56.410 -58.245 -41.393
56.411 -58.695 -41.385
56.409 -59.149 -41.381
56.403 -59.599 -41.383
56.402 -60.041 -41.417
56.405 -60.495 -41.400
56.415 -60.953 -41.378
56.413 -61.403 -41.368
56.411 -61.851 -41.377
56.411 -62.301 -41.377
56.415 -62.755 -41.362
56.410 -63.204 -41.380
56.408 -63.650 -41.382
56.408 -64.099 -41.384
56.409 -64.554 -41.385
56.408 -65.004 -41.385
56.414 -65.459 -41.365
56.414 -65.909 -41.349
56.409 -66.355 -41.375
56.166 38.763 -41.314
56.200 32.993 -41.294
56.032 39.757 -41.311
56.051 34.978 -41.322
56.127 10.812 -41.357
56.167 -11.640 -41.350
56.151 -60.228 -41.378
56.158 -61.132 -41.368
55.901 36.952 -41.384
55.924 34.979 -41.306
55.970 24.427 -41.310
55.998 10.812 -41.359
56.029 0.985 -41.300
56.043 -20.115 -41.331
56.046 -21.917 -41.331
56.057 -25.979 -41.274
55.797 34.979 -41.306
55.816 25.870 -41.371
55.899 3.960 -41.277
55.899 3.870 -41.281
55.928 -20.208 -41.264
55.932 -20.299 -41.248
55.925 -33.284 -41.289
55.529 71.131 -41.318
55.535 70.681 -41.318
55.531 70.231 -41.327
55.536 69.779 -41.307
55.532 69.323 -41.347
55.540 68.876 -41.335
55.541 68.426 -41.338
55.542 67.972 -41.329
55.546 67.524 -41.318
55.544 67.075 -41.318
55.546 66.626 -41.313
55.542 66.167 -41.350
55.543 65.716 -41.347
55.551 65.270 -41.333
55.542 64.816 -41.350
55.549 64.366 -41.335
55.552 63.916 -41.333
55.554 63.467 -41.341
55.556 63.015 -41.318
55.557 62.566 -41.313
-90.421 38.748 -41.776
55.564 62.115 -41.315
-90.409 38.921 -41.833
55.559 61.661 -41.330
55.559 61.214 -41.316
55.561 60.761 -41.330
55.565 60.309 -41.318
55.566 59.861 -41.313
55.567 59.410 -41.333
55.566 58.954 -41.357
55.566 58.501 -41.353
-90.415 39.737 -41.790
-90.410 39.824 -41.811
55.575 58.056 -41.330
55.572 57.610 -41.313
55.572 57.159 -41.318
55.576 56.706 -41.330
55.571 56.250 -41.353
55.579 55.800 -41.340
55.585 55.355 -41.320
55.582 54.901 -41.333
55.592 54.453 -41.306
55.586 54.001 -41.313
55.593 53.549 -41.308
55.595 53.100 -41.315
55.596 52.645 -41.318
55.597 52.194 -41.333
55.599 51.745 -41.335
55.603 51.294 -41.337
55.606 50.845 -41.315
55.612 50.395 -41.300
55.609 49.944 -41.318
55.609 49.494 -41.318
55.609 49.044 -41.322
55.611 48.591 -41.315
55.606 48.136 -41.346
55.607 47.686 -41.349
55.620 47.240 -41.320
55.619 46.790 -41.313
55.625 46.335 -41.337
55.618 45.885 -41.346
55.617 45.431 -41.333
55.623 44.984 -41.336
55.614 44.529 -41.365
55.620 44.080 -41.333
55.621 43.630 -41.345
55.636 43.181 -41.313
55.640 42.726 -41.325
55.631 42.276 -41.347
55.639 41.826 -41.330
55.639 41.380 -41.308
55.641 40.925 -41.325
55.639 40.474 -41.330
55.638 40.022 -41.340
55.645 39.574 -41.333
55.639 39.120 -41.342
55.651 38.674 -41.311
55.647 38.221 -41.327
55.652 37.771 -41.337
55.649 37.316 -41.361
55.650 36.865 -41.374
55.644 36.416 -41.376
55.656 35.969 -41.349
55.658 35.519 -41.333
55.654 35.066 -41.342
55.664 34.619 -41.315
55.662 34.166 -41.344
55.666 33.713 -41.338
55.661 33.261 -41.347
55.659 32.809 -41.349
55.671 32.360 -41.327
55.671 31.911 -41.326
55.677 31.456 -41.333
55.680 31.006 -41.330
55.676 30.555 -41.352
55.672 30.105 -41.377
55.683 29.656 -41.338
-90.432 45.668 -41.834
-90.430 45.761 -41.816
55.685 29.204 -41.351
55.686 28.754 -41.349
55.688 28.305 -41.340
55.687 27.854 -41.349
55.693 27.404 -41.305
55.694 26.951 -41.327
55.700 26.503 -41.318
55.693 26.051 -41.344
55.687 25.869 -41.376
55.701 25.600 -41.330
55.702 25.150 -41.321
55.693 24.700 -41.345
-90.429 46.929 -41.811
55.708 24.245 -41.335
55.701 23.795 -41.348
55.706 23.341 -41.351
55.708 22.890 -41.353
55.704 22.440 -41.362
55.711 21.989 -41.349
55.722 21.540 -41.322
55.712 21.090 -41.346
55.719 20.642 -41.314
55.719 20.190 -41.337
55.717 19.736 -41.349
55.716 19.286 -41.351
55.721 18.839 -41.336
55.713 18.389 -41.346
55.733 17.938 -41.292
55.726 17.485 -41.327
55.729 17.036 -41.333
55.731 16.585 -41.335
55.731 16.130 -41.338
55.741 15.774 -41.313
55.733 15.684 -41.327
55.731 15.235 -41.333
55.735 14.780 -41.313
55.731 14.330 -41.335
55.735 13.875 -41.320
55.740 13.425 -41.335
55.741 12.975 -41.345
55.745 12.525 -41.320
55.741 12.074 -41.350
55.748 11.624 -41.337
55.746 11.172 -41.359
55.748 10.725 -41.342
55.743 10.270 -41.350
55.746 9.820 -41.342
55.751 9.370 -41.333
55.751 8.920 -41.330
55.760 8.471 -41.298
55.760 8.020 -41.300
55.757 7.570 -41.306
55.751 7.120 -41.315
55.754 6.666 -41.327
55.753 6.215 -41.342
55.755 5.765 -41.340
55.754 5.310 -41.340
55.748 4.861 -41.350
55.759 4.410 -41.320
55.764 3.960 -41.328
55.773 3.510 -41.306
55.768 3.060 -41.320
55.764 2.605 -41.340
55.761 2.155 -41.350
55.769 1.705 -41.333
55.769 1.255 -41.315
55.768 0.805 -41.327
55.768 0.355 -41.342
55.769 -0.095 -41.325
55.783 -0.546 -41.293
55.784 -1.000 -41.287
55.783 -1.450 -41.287
55.778 -1.905 -41.314
55.779 -2.350 -41.307
55.779 -2.800 -41.305
55.781 -3.255 -41.306
55.776 -3.705 -41.318
55.774 -4.155 -41.321
55.776 -4.605 -41.316
55.789 -5.060 -41.282
55.789 -5.510 -41.287
55.783 -5.960 -41.312
55.784 -6.410 -41.292
55.787 -6.860 -41.307
55.783 -7.310 -41.316
55.777 -7.760 -41.312
55.793 -8.210 -41.292
55.793 -8.660 -41.292
55.784 -9.115 -41.333
55.784 -9.565 -41.333
55.790 -10.016 -41.309
55.781 -10.376 -41.341
55.779 -10.465 -41.347
55.789 -10.919 -41.307
55.779 -11.370 -41.328
55.791 -11.820 -41.319
55.791 -12.270 -41.303
55.794 -12.725 -41.292
55.790 -13.175 -41.314
55.799 -13.625 -41.295
55.794 -14.074 -41.289
55.796 -14.524 -41.282
55.795 -14.976 -41.299
55.807 -15.429 -41.270
55.784 -15.875 -41.328
55.800 -16.326 -41.285
55.800 -16.780 -41.287
55.799 -17.230 -41.290
55.796 -17.685 -41.303
55.804 -17.864 -41.279
55.804 -17.954 -41.279
55.794 -18.134 -41.304
55.792 -18.589 -41.287
55.788 -19.035 -41.312
55.799 -19.485 -41.290
55.787 -19.935 -41.320
55.799 -20.390 -41.270
55.799 -20.841 -41.268
55.788 -21.290 -41.316
55.789 -21.740 -41.318
55.793 -22.190 -41.313
55.796 -22.641 -41.301
55.796 -23.091 -41.304
55.795 -23.540 -41.307
55.795 -23.990 -41.322
55.797 -24.445 -41.299
55.796 -24.895 -41.319
55.787 -25.341 -41.324
55.795 -25.794 -41.309
55.794 -26.245 -41.312
55.797 -26.698 -41.302
55.798 -27.154 -41.297
55.792 -27.600 -41.309
55.792 -28.054 -41.326
55.790 -28.504 -41.319
55.799 -28.954 -41.312
55.792 -29.401 -41.334
55.791 -29.851 -41.336
55.799 -30.309 -41.299
55.791 -30.755 -41.338
55.794 -31.205 -41.323
55.792 -31.656 -41.307
55.791 -32.110 -41.319
55.799 -32.292 -41.285
55.790 -32.559 -41.326
55.787 -33.007 -41.336
55.780 -33.097 -41.351
55.781 -33.190 -41.346
55.784 -33.461 -41.319
55.788 -33.911 -41.336
55.791 -34.365 -41.321
55.793 -34.819 -41.294
55.786 -35.269 -41.297
55.786 -35.715 -41.342
55.794 -36.166 -41.341
55.789 -36.620 -41.314
55.791 -37.065 -41.342
55.784 -37.515 -41.350
55.785 -37.970 -41.342
55.777 -38.416 -41.360
55.789 -38.870 -41.327
55.790 -39.320 -41.321
55.789 -39.775 -41.314
55.789 -40.224 -41.326
55.784 -40.670 -41.340
55.776 -41.120 -41.365
55.788 -41.574 -41.338
55.783 -42.024 -41.352
55.783 -42.473 -41.353
55.784 -42.926 -41.342
55.789 -43.378 -41.333
55.786 -43.830 -41.357
55.788 -44.284 -41.327
55.786 -44.730 -41.342
55.788 -45.180 -41.330
55.784 -45.634 -41.349
55.784 -46.080 -41.365
55.777 -46.531 -41.360
55.783 -46.981 -41.347
55.779 -47.435 -41.350
55.789 -47.885 -41.345
55.777 -48.335 -41.327
55.780 -48.784 -41.347
55.782 -49.234 -41.376
55.775 -49.685 -41.378
55.774 -50.135 -41.380
55.769 -50.585 -41.365
55.769 -51.034 -41.369
55.772 -51.486 -41.381
55.769 -51.939 -41.365
55.776 -52.388 -41.354
55.779 -52.839 -41.347
55.770 -53.291 -41.362
55.770 -53.741 -41.366
55.770 -54.194 -41.364
55.769 -54.644 -41.363
55.763 -55.090 -41.400
55.763 -55.543 -41.388
55.764 -55.994 -41.385
55.764 -56.444 -41.385
55.769 -56.899 -41.349
55.770 -57.350 -41.349
55.766 -57.795 -41.395
55.766 -58.245 -41.397
55.764 -58.696 -41.380
55.766 -59.057 -41.397
55.769 -59.149 -41.369
55.764 -59.599 -41.382
55.761 -60.042 -41.409
55.764 -60.499 -41.382
55.756 -60.950 -41.397
55.761 -61.401 -41.376
55.761 -61.851 -41.373
55.759 -62.301 -41.373
55.762 -62.754 -41.376
55.768 -63.205 -41.373
55.756 -63.654 -41.366
55.761 -64.100 -41.395
55.760 -64.554 -41.393
55.759 -65.005 -41.375
55.757 -65.454 -41.382
55.759 -65.904 -41.382
55.766 -66.358 -41.351
55.403 71.318 -41.276
55.403 71.227 -41.283
55.496 45.524 -41.313
55.655 -19.755 -41.342
55.654 -19.845 -41.344
55.679 -21.470 -41.263
55.673 -26.973 -41.287
55.433 29.928 -41.325
55.479 17.038 -41.313
55.531 -20.930 -41.321
55.539 -36.353 -41.289
55.509 -59.333 -41.361
55.289 33.985 -41.307
55.290 33.894 -41.306
55.310 21.896 -41.377
55.389 -18.401 -41.362
55.419 -25.344 -41.274
55.186 28.938 -41.298
55.232 12.075 -41.296
55.254 -3.255 -41.357
55.268 -26.245 -41.353
55.269 -26.335 -41.351
55.279 -41.033 -41.322
54.890 71.138 -41.296
54.884 70.684 -41.307
54.889 70.230 -41.331
54.888 69.782 -41.309
54.893 69.330 -41.306
54.889 68.876 -41.331
54.890 68.425 -41.336
54.889 67.970 -41.355
54.894 67.524 -41.318
54.899 67.075 -41.335
54.896 66.626 -41.313
54.904 66.171 -41.315
54.899 65.719 -41.338
54.900 65.266 -41.350
54.900 64.816 -41.354
54.900 64.365 -41.353
54.901 63.916 -41.347
54.901 63.465 -41.350
54.909 63.014 -41.338
54.906 62.565 -41.315
54.915 62.115 -41.313
54.915 61.665 -41.313
54.915 61.211 -41.333
54.915 60.761 -41.333
54.915 60.309 -41.333
54.914 59.859 -41.333
54.915 59.410 -41.320
54.924 58.960 -41.335
54.917 58.502 -41.350
54.928 58.059 -41.320
54.926 57.606 -41.333
54.927 57.154 -41.338
54.934 56.704 -41.340
54.926 56.253 -41.322
54.930 55.800 -41.344
54.931 55.355 -41.335
54.935 54.901 -41.318
54.941 54.450 -41.333
54.944 54.000 -41.315
54.945 53.550 -41.315
54.944 53.099 -41.318
54.947 52.645 -41.330
54.949 52.194 -41.337
54.949 51.740 -41.352
54.949 51.289 -41.368
54.952 50.840 -41.347
54.961 50.391 -41.346
54.961 49.940 -41.348
54.961 49.490 -41.346
54.962 49.039 -41.347
54.967 48.585 -41.354
54.961 48.134 -41.368
54.967 47.685 -41.366
54.962 47.235 -41.361
54.965 46.784 -41.352
54.974 46.335 -41.347
54.974 45.885 -41.331
54.975 45.435 -41.328
54.974 44.980 -41.350
54.967 44.530 -41.361
54.979 44.084 -41.330
54.975 43.630 -41.363
54.974 43.176 -41.363
54.985 42.729 -41.340
54.989 42.275 -41.338
54.986 41.825 -41.359
54.978 41.371 -41.376
54.998 40.924 -41.335
55.005 40.748 -41.293
55.006 40.659 -41.289
55.002 40.478 -41.306
54.989 40.020 -41.352
54.986 39.570 -41.380
54.987 39.115 -41.380
54.993 38.670 -41.361
54.998 38.220 -41.339
55.001 37.771 -41.358
55.009 37.502 -41.346
55.004 37.316 -41.356
54.999 36.864 -41.388
55.005 36.419 -41.349
55.003 35.966 -41.376
54.999 35.515 -41.373
55.006 35.065 -41.361
55.007 34.615 -41.339
55.016 34.168 -41.320
55.014 33.712 -41.344
55.025 33.265 -41.315
55.025 32.810 -41.340
55.026 32.360 -41.335
55.022 31.905 -41.370
55.024 31.451 -41.385
55.018 31.005 -41.378
55.031 30.555 -41.365
55.039 30.105 -41.352
55.044 29.656 -41.333
55.046 29.205 -41.330
55.041 28.755 -41.345
55.045 28.305 -41.345
55.036 27.851 -41.373
55.035 27.487 -41.371
55.041 27.400 -41.357
55.048 26.951 -41.330
55.054 26.501 -41.327
55.045 26.051 -41.347
55.049 25.600 -41.330
55.053 25.150 -41.320
55.056 24.700 -41.318
55.059 24.245 -41.330
55.054 23.795 -41.362
55.058 23.340 -41.354
55.055 22.890 -41.372
55.069 22.444 -41.336
55.053 22.081 -41.368
55.058 21.987 -41.363
55.069 21.540 -41.339
55.066 21.091 -41.317
55.064 20.639 -41.365
55.060 20.548 -41.375
55.061 20.188 -41.373
55.078 19.739 -41.336
55.075 19.286 -41.351
55.074 18.835 -41.355
55.074 18.389 -41.355
55.075 17.935 -41.353
55.077 17.484 -41.368
55.076 17.035 -41.354
55.083 16.585 -41.356
55.084 16.130 -41.357
55.077 15.680 -41.366
55.084 15.231 -41.354
55.084 14.780 -41.354
55.089 14.330 -41.338
55.089 13.875 -41.335
55.089 13.425 -41.338
55.092 12.975 -41.342
55.091 12.525 -41.347
55.102 12.075 -41.311
55.098 11.624 -41.354
55.092 11.175 -41.350
55.099 10.725 -41.333
55.104 10.270 -41.318
55.103 9.820 -41.325
55.106 9.373 -41.311
55.102 8.920 -41.352
55.107 8.470 -41.342
55.111 8.020 -41.330
55.114 7.570 -41.333
55.114 7.120 -41.335
55.114 6.666 -41.339
55.109 6.215 -41.325
55.118 5.765 -41.318
55.114 5.310 -41.338
55.107 4.860 -41.350
55.112 4.410 -41.354
55.114 3.960 -41.355
55.118 3.510 -41.337
55.123 3.060 -41.289
55.119 2.605 -41.315
55.116 2.155 -41.330
55.121 1.705 -41.335
55.120 1.255 -41.333
55.127 0.805 -41.301
55.124 0.355 -41.320
55.128 -0.095 -41.338
55.126 -0.546 -41.320
55.134 -1.000 -41.320
55.126 -1.450 -41.316
55.132 -1.905 -41.311
55.124 -2.350 -41.350
55.130 -2.800 -41.338
55.124 -3.255 -41.367
55.126 -3.705 -41.340
55.124 -4.155 -41.342
55.126 -4.605 -41.340
55.127 -5.060 -41.330
55.126 -5.510 -41.338
55.133 -5.960 -41.298
55.132 -6.410 -41.314
55.131 -6.860 -41.306
55.140 -7.310 -41.309
55.139 -7.760 -41.307
55.127 -8.210 -41.347
55.127 -8.660 -41.355
55.131 -9.115 -41.318
55.136 -9.565 -41.340
55.140 -10.015 -41.320
55.147 -10.469 -41.309
55.146 -10.919 -41.287
55.148 -11.370 -41.304
55.146 -11.820 -41.311
55.135 -12.270 -41.338
55.133 -12.720 -41.367
55.146 -13.173 -41.321
55.151 -13.625 -41.295
55.142 -14.071 -41.319
55.148 -14.523 -41.308
55.155 -14.975 -41.290
55.146 -15.425 -41.304
55.141 -15.875 -41.312
55.149 -16.326 -41.292
55.146 -16.780 -41.305
55.145 -17.230 -41.305
55.144 -17.681 -41.323
55.128 -18.130 -41.369
55.139 -18.585 -41.339
55.143 -19.035 -41.311
55.153 -19.485 -41.305
55.147 -19.935 -41.320
55.148 -20.389 -41.294
55.147 -20.840 -41.321
55.142 -21.287 -41.337
55.134 -21.736 -41.351
55.141 -22.186 -41.356
55.135 -22.640 -41.349
55.146 -23.090 -41.325
55.149 -23.541 -41.335
55.144 -23.990 -41.330
55.144 -24.444 -41.328
55.145 -24.892 -41.331
55.142 -25.340 -41.338
55.156 -25.795 -41.307
55.153 -26.246 -41.314
55.145 -26.696 -41.333
55.149 -27.150 -41.345
55.149 -27.600 -41.342
55.143 -28.051 -41.354
55.139 -28.141 -41.367
55.139 -28.231 -41.364
55.151 -28.505 -41.312
55.143 -28.951 -41.338
55.149 -29.401 -41.331
55.141 -29.851 -41.328
55.141 -30.126 -41.329
55.139 -30.216 -41.333
55.139 -30.306 -41.334
55.139 -30.755 -41.336
55.141 -31.205 -41.328
55.138 -31.655 -41.336
55.137 -32.107 -41.338
55.131 -32.555 -41.378
55.139 -33.009 -41.330
55.142 -33.461 -41.326
55.150 -33.911 -41.324
55.140 -34.362 -41.351
55.144 -34.814 -41.350
55.141 -35.264 -41.349
55.141 -35.719 -41.323
55.142 -36.169 -41.326
55.144 -36.616 -41.340
55.144 -37.065 -41.340
55.137 -37.515 -41.345
55.136 -37.970 -41.342
-90.137 -45.342 -41.467
55.141 -38.420 -41.326
55.137 -38.866 -41.364
55.144 -39.315 -41.347
55.144 -39.770 -41.347
55.143 -40.221 -41.345
55.144 -40.670 -41.345
55.138 -41.120 -41.357
55.135 -41.570 -41.365
55.136 -42.020 -41.374
55.135 -42.471 -41.362
55.135 -42.925 -41.350
55.134 -43.375 -41.362
55.140 -43.834 -41.330
55.139 -44.284 -41.327
55.144 -44.730 -41.345
55.139 -45.180 -41.342
-90.143 -43.806 -41.508
55.132 -45.631 -41.360
55.132 -46.081 -41.362
55.125 -46.529 -41.382
55.131 -46.980 -41.365
55.131 -47.435 -41.347
55.130 -47.885 -41.350
55.130 -48.331 -41.357
55.130 -48.781 -41.360
55.131 -49.236 -41.357
55.131 -49.687 -41.355
55.130 -50.137 -41.357
55.131 -50.586 -41.357
55.122 -51.035 -41.352
55.125 -51.486 -41.376
55.124 -51.936 -41.381
55.120 -52.384 -41.371
55.121 -52.835 -41.369
55.122 -53.290 -41.367
55.118 -53.736 -41.395
55.124 -54.189 -41.403
55.116 -54.636 -41.409
55.123 -55.090 -41.385
55.116 -55.540 -41.411
55.116 -55.989 -41.404
55.111 -56.436 -41.411
55.116 -56.894 -41.395
55.124 -57.345 -41.397
55.125 -57.795 -41.382
55.124 -58.245 -41.382
55.124 -58.696 -41.385
55.116 -59.145 -41.402
55.115 -59.595 -41.399
55.120 -60.050 -41.365
55.116 -60.496 -41.393
55.123 -60.951 -41.380
55.109 -61.399 -41.382
55.106 -61.846 -41.410
55.118 -62.300 -41.377
55.119 -62.754 -41.376
55.116 -63.205 -41.360
55.119 -63.650 -41.375
55.110 -64.100 -41.393
55.110 -64.554 -41.395
55.109 -65.000 -41.400
55.109 -65.450 -41.415
55.101 -65.900 -41.395
55.109 -66.354 -41.376
54.879 37.772 -41.331
54.886 35.699 -41.339
54.987 5.765 -41.296
55.022 -36.259 -41.308
54.725 44.534 -41.326
54.744 40.207 -41.314
54.729 39.751 -41.369
54.744 39.574 -41.324
54.739 39.028 -41.351
54.758 32.716 -41.374
54.778 28.392 -41.364
54.894 -13.355 -41.301
54.879 -31.743 -41.348
54.620 -1.270 -41.283
54.230 71.129 -41.338
54.231 70.681 -41.331
54.239 70.230 -41.320
54.244 69.781 -41.313
54.241 69.329 -41.316
54.244 68.879 -41.320
54.240 68.425 -41.340
54.241 67.971 -41.333
54.245 67.523 -41.325
54.246 67.071 -41.350
54.252 66.621 -41.353
54.254 66.167 -41.350
54.255 65.716 -41.350
54.255 65.266 -41.350
54.255 64.816 -41.353
54.256 64.370 -41.318
54.259 63.917 -41.327
54.261 63.467 -41.331
54.256 63.006 -41.366
54.264 62.560 -41.355
54.262 62.110 -41.335
54.269 61.660 -41.335
