87.382 17.890 42.920
87.399 42.400 42.978
87.433 58.999 43.033
87.415 59.261 43.088
87.426 60.518 43.068
87.432 60.609 43.073
87.418 60.778 43.112
87.440 61.952 43.077
87.426 63.552 43.153
87.217 -68.584 42.875
87.210 -68.134 42.890
87.205 -67.680 42.906
87.212 -67.235 42.874
87.213 -66.795 42.850
87.213 -66.345 42.835
87.196 -65.886 42.883
87.196 -65.441 42.868
87.194 -64.989 42.871
87.194 -64.544 42.869
87.185 -64.094 42.859
87.184 -63.645 42.857
87.184 -63.196 42.855
87.184 -62.750 42.870
89.015 -16.774 42.852
87.168 -62.296 42.883
87.170 -61.843 42.893
87.173 -61.400 42.883
87.166 -60.950 42.883
87.169 -60.504 42.872
87.161 -60.050 42.903
87.151 -59.596 42.923
87.151 -59.151 42.923
87.159 -58.884 42.895
87.159 -58.704 42.893
87.161 -58.255 42.885
87.168 -57.810 42.868
87.161 -57.360 42.882
87.167 -56.911 42.868
87.161 -56.460 42.877
87.155 -56.011 42.871
87.165 -55.564 42.864
87.166 -55.115 42.860
87.168 -54.666 42.840
87.165 -54.216 42.847
87.166 -53.770 42.862
87.165 -53.319 42.864
87.158 -52.870 42.878
87.164 -52.420 42.867
87.165 -51.971 42.862
87.166 -51.530 42.842
87.168 -51.080 42.840
87.164 -50.628 42.853
87.164 -50.180 42.850
87.166 -49.731 42.845
87.164 -49.280 42.847
87.156 -48.831 42.881
87.157 -48.381 42.876
87.162 -47.935 42.865
87.156 -47.484 42.866
87.156 -47.035 42.876
87.163 -46.589 42.852
87.156 -46.135 42.876
87.162 -45.685 42.869
87.154 -45.234 42.882
87.155 -44.786 42.876
87.173 -44.340 42.847
87.164 -43.894 42.858
87.163 -43.444 42.861
87.163 -42.994 42.862
87.163 -42.545 42.862
87.160 -42.099 42.849
87.158 -41.645 42.865
87.161 -41.201 42.856
87.151 -40.750 42.877
89.016 -12.192 42.881
89.021 -12.104 42.856
87.159 -40.300 42.865
87.151 -39.845 42.895
87.151 -39.396 42.895
87.152 -38.945 42.893
87.157 -38.501 42.873
87.156 -38.050 42.875
87.159 -37.604 42.864
87.162 -37.157 42.855
87.165 -36.706 42.859
87.166 -36.259 42.860
87.171 -35.903 42.851
87.174 -35.814 42.845
87.174 -35.364 42.842
87.164 -34.915 42.873
87.174 -34.465 42.864
87.175 -34.015 42.860
87.166 -33.566 42.873
87.166 -33.115 42.893
87.169 -32.669 42.864
87.170 -32.220 42.862
87.169 -31.770 42.875
87.169 -31.320 42.877
87.171 -30.870 42.882
87.171 -30.420 42.871
87.173 -29.975 42.873
87.179 -29.523 42.866
87.177 -29.163 42.870
87.174 -29.071 42.893
87.180 -28.624 42.880
87.182 -28.175 42.877
87.186 -27.725 42.888
87.186 -27.279 42.886
87.187 -27.191 42.883
87.197 -27.104 42.849
87.195 -26.833 42.852
87.190 -26.380 42.862
87.190 -25.935 42.873
87.185 -25.485 42.895
87.190 -25.035 42.875
87.193 -24.585 42.877
87.198 -24.140 42.862
87.194 -23.689 42.862
87.190 -23.235 42.875
87.185 -22.785 42.912
89.025 -8.065 42.859
87.191 -22.335 42.877
87.198 -22.163 42.871
87.194 -21.890 42.893
87.196 -21.440 42.897
87.196 -20.991 42.895
87.196 -20.545 42.895
87.203 -20.095 42.893
87.201 -19.649 42.877
87.209 -19.200 42.860
87.209 -18.750 42.860
87.201 -18.301 42.875
87.209 -17.850 42.877
87.205 -17.400 42.895
87.211 -16.950 42.877
87.206 -16.500 42.900
87.207 -16.050 42.909
87.215 -15.605 42.895
87.215 -15.155 42.895
87.216 -14.885 42.893
87.210 -14.705 42.895
87.214 -14.260 42.869
87.211 -13.990 42.893
87.216 -13.810 42.862
87.216 -13.361 42.867
87.215 -12.914 42.885
87.211 -12.460 42.917
87.211 -12.014 42.915
87.216 -11.565 42.876
87.217 -11.115 42.876
87.219 -10.665 42.890
87.224 -10.215 42.869
87.227 -9.770 42.874
87.224 -9.320 42.880
87.224 -8.870 42.880
87.226 -8.420 42.878
87.224 -7.970 42.895
87.221 -7.520 42.882
87.228 -7.074 42.867
87.222 -6.625 42.891
87.221 -6.175 42.895
87.222 -5.725 42.893
87.228 -5.275 42.867
87.225 -4.825 42.881
87.235 -4.376 42.865
87.236 -3.930 42.865
87.236 -3.480 42.867
87.234 -3.034 42.871
87.230 -2.585 42.895
87.237 -2.135 42.862
87.236 -1.685 42.865
87.231 -1.235 42.915
87.232 -0.785 42.903
87.234 -0.340 42.888
87.230 0.110 42.907
87.225 0.560 42.929
87.239 1.010 42.904
87.234 1.459 42.903
87.240 1.905 42.885
87.236 2.355 42.903
87.236 2.805 42.900
87.240 3.255 42.872
87.236 3.705 42.897
87.236 4.155 42.900
87.243 4.601 42.883
87.239 5.050 42.886
87.250 5.500 42.870
87.250 5.945 42.870
87.245 6.395 42.900
87.247 6.845 42.900
87.254 7.291 42.905
87.250 7.740 42.885
87.249 8.190 42.890
87.247 8.640 42.903
87.249 9.095 42.888
87.250 9.545 42.888
87.251 9.990 42.890
87.260 10.440 42.872
87.253 10.889 42.886
87.251 11.335 42.900
87.255 11.785 42.888
87.250 12.235 42.908
87.251 12.685 42.901
87.253 13.041 42.880
87.253 13.130 42.877
87.249 13.580 42.905
87.253 14.030 42.877
87.251 14.481 42.905
87.256 14.930 42.888
87.264 15.380 42.871
87.255 15.830 42.893
87.249 16.275 42.919
87.254 16.725 42.912
87.247 17.175 42.938
87.255 17.620 42.910
87.254 17.890 42.927
89.047 1.459 42.865
87.254 18.070 42.912
87.259 18.520 42.895
87.256 18.966 42.908
87.256 19.415 42.912
87.256 19.865 42.928
87.258 20.319 42.908
87.256 20.769 42.912
87.256 21.216 42.910
87.261 21.664 42.900
87.257 22.114 42.897
87.250 22.560 42.930
87.257 23.010 42.897
87.261 23.460 42.910
87.260 23.910 42.912
87.261 24.360 42.910
87.265 24.809 42.893
87.261 25.256 42.905
87.261 25.705 42.910
87.260 26.155 42.915
87.251 26.600 42.943
87.268 27.054 42.912
87.269 27.504 42.912
87.261 27.950 42.928
87.269 28.400 42.912
87.261 28.846 42.930
87.262 29.294 42.929
87.261 29.745 42.932
87.259 30.194 42.952
87.261 30.638 42.958
87.271 31.090 42.928
87.270 31.540 42.928
87.269 31.990 42.931
87.267 32.440 42.938
87.268 32.885 42.935
87.262 33.335 42.947
87.270 33.785 42.935
87.274 34.235 42.905
87.274 34.325 42.903
87.274 34.505 42.905
87.269 34.684 42.937
87.264 35.130 42.955
87.264 35.578 42.955
87.260 36.026 42.967
87.256 36.474 42.982
87.255 36.920 42.987
88.897 -65.092 42.810
87.255 37.370 42.987
87.267 37.825 42.948
87.273 38.275 42.939
87.274 38.725 42.939
87.274 39.170 42.937
87.274 39.624 42.939
87.265 40.068 42.980
87.262 40.514 42.970
87.261 40.965 42.970
87.270 41.415 42.952
87.277 41.863 42.941
87.269 42.310 42.958
87.270 42.400 42.970
87.271 42.760 42.950
87.271 43.209 42.955
87.271 43.655 42.972
87.268 44.102 42.999
87.280 44.555 42.970
87.280 45.005 42.970
87.280 45.455 42.967
87.281 45.905 42.965
87.281 46.354 42.972
87.274 46.795 43.007
87.277 47.245 43.009
87.281 47.695 42.990
87.281 48.144 42.992
87.277 48.321 43.016
87.278 48.590 43.011
87.279 49.040 43.008
87.286 49.488 42.999
87.283 49.848 42.984
87.283 49.939 42.982
87.287 50.390 42.976
87.288 50.834 42.994
87.287 51.283 42.999
87.286 51.731 43.004
87.284 52.184 42.997
87.285 52.635 42.990
87.285 53.084 43.008
87.294 53.530 43.006
87.294 53.980 43.006
87.296 54.426 42.990
87.294 54.876 42.991
87.294 55.324 43.010
87.287 55.769 43.013
88.857 -60.949 42.876
87.296 56.220 43.010
87.290 56.666 43.048
87.298 57.114 43.030
87.293 57.565 43.028
87.291 58.011 43.048
87.291 58.459 43.030
87.299 58.909 43.035
87.298 58.998 43.041
87.283 59.171 43.095
87.284 59.351 43.100
87.291 59.526 43.096
87.295 59.617 43.090
87.306 59.799 43.068
87.291 59.976 43.095
87.293 60.158 43.072
87.289 60.246 43.085
87.290 60.694 43.107
87.290 61.136 43.118
87.302 61.590 43.085
87.301 62.035 43.107
87.293 62.477 43.153
87.296 62.930 43.120
87.296 63.375 43.120
87.291 63.821 43.155
87.307 64.281 43.103
87.314 64.724 43.109
87.314 65.174 43.107
87.316 65.625 43.104
87.326 66.073 43.094
87.088 -66.973 42.840
87.046 -29.161 42.878
87.069 -27.103 42.849
87.073 -22.163 42.864
87.089 -15.695 42.875
87.107 -2.765 42.874
87.106 -2.675 42.876
87.109 0.650 42.893
87.126 14.030 42.879
87.126 14.120 42.879
87.125 14.211 42.882
87.143 44.280 43.015
87.149 59.975 43.100
87.152 60.511 43.129
87.152 60.601 43.133
87.167 62.121 43.131
86.902 -60.763 42.915
86.893 -56.636 42.897
86.914 -50.900 42.828
86.902 -42.900 42.865
86.946 -22.163 42.851
86.978 2.895 42.915
86.984 7.115 42.915
86.984 7.204 42.915
86.984 7.830 42.912
86.985 9.632 42.912
86.994 10.260 42.896
86.994 10.350 42.896
86.988 13.940 42.916
86.988 14.030 42.916
86.999 30.547 42.963
87.008 47.242 43.035
87.043 59.179 43.037
87.042 59.268 43.041
87.022 59.440 43.100
87.033 59.799 43.060
87.022 59.976 43.083
87.036 60.424 43.094
87.029 60.511 43.126
87.027 60.601 43.131
87.041 63.020 43.132
86.825 -67.688 42.861
86.824 -67.598 42.863
86.783 -50.903 42.822
86.762 -45.771 42.908
86.772 -42.900 42.870
86.766 -41.287 42.888
86.814 -26.563 42.849
86.805 -24.765 42.871
86.820 -22.164 42.849
86.851 -4.825 42.855
86.848 -0.250 42.897
86.848 -0.160 42.894
86.848 -0.070 42.894
86.847 0.020 42.899
86.853 1.370 42.875
86.863 4.065 42.879
86.869 5.590 42.882
86.868 5.856 42.885
86.861 7.204 42.895
86.863 7.920 42.895
86.874 14.574 42.885
86.871 30.547 42.960
86.879 42.845 43.013
86.878 44.101 43.014
86.894 45.814 42.960
86.893 45.904 42.963
86.896 57.916 43.077
86.897 58.007 43.071
86.913 59.268 43.044
86.906 59.798 43.072
86.899 59.976 43.084
86.897 60.244 43.104
86.903 61.046 43.128
86.902 61.136 43.131
86.912 63.021 43.131
86.686 -67.503 42.893
86.670 -66.606 42.893
86.651 -54.488 42.834
86.667 -30.064 42.863
86.653 -29.881 42.904
86.652 -29.070 42.921
86.683 -26.564 42.846
86.671 -24.855 42.888
86.689 -22.163 42.858
86.693 -14.616 42.902
86.692 -12.820 42.926
86.694 -12.730 42.924
86.704 -5.725 42.904
86.714 -4.465 42.906
86.718 -4.376 42.901
86.714 -4.289 42.908
86.713 -4.200 42.908
86.714 -4.110 42.906
86.719 -4.020 42.896
86.719 -3.930 42.896
86.713 -3.840 42.910
86.713 -0.785 42.929
86.713 -0.340 42.931
86.713 -0.250 42.931
86.713 -0.160 42.931
86.713 -0.070 42.931
86.713 0.020 42.931
86.728 5.680 42.915
86.728 5.769 42.915
86.734 5.856 42.901
86.722 7.650 42.917
86.734 10.889 42.912
86.733 11.875 42.917
86.753 28.934 42.923
86.771 51.553 43.002
86.783 55.144 42.999
86.777 57.114 43.016
86.777 57.204 43.016
86.787 58.909 43.020
86.789 58.999 43.018
86.781 59.263 43.076
86.779 59.350 43.097
86.779 59.702 43.112
86.780 59.792 43.111
86.779 59.881 43.113
86.777 59.971 43.111
86.777 60.156 43.086
86.770 60.240 43.119
86.794 60.428 43.073
86.794 60.519 43.058
86.793 60.609 43.058
86.787 60.697 43.076
86.780 60.781 43.102
86.556 -68.581 42.883
86.555 -68.134 42.883
86.554 -67.684 42.884
86.548 -67.235 42.877
86.551 -66.790 42.866
86.554 -66.432 42.857
86.550 -66.339 42.867
86.539 -65.885 42.901
86.539 -65.439 42.901
86.539 -64.989 42.888
86.531 -64.541 42.894
86.537 -64.098 42.869
86.530 -63.649 42.865
86.522 -63.195 42.879
86.529 -62.750 42.866
86.521 -62.292 42.894
86.521 -61.846 42.863
86.519 -61.400 42.881
86.510 -60.950 42.879
86.509 -60.499 42.903
86.505 -60.045 42.923
86.505 -59.595 42.934
86.496 -59.145 42.951
86.507 -58.697 42.928
86.509 -58.251 42.898
86.505 -57.806 42.898
86.511 -57.360 42.878
86.512 -56.911 42.864
86.506 -56.456 42.912
86.511 -56.014 42.876
86.511 -55.561 42.872
86.519 -55.119 42.858
86.511 -54.669 42.858
86.511 -54.215 42.874
86.512 -53.764 42.881
86.510 -53.316 42.876
86.510 -52.865 42.898
86.509 -52.415 42.901
86.509 -51.965 42.901
86.513 -51.525 42.864
86.517 -51.080 42.838
86.504 -50.624 42.878
86.504 -50.175 42.878
86.506 -49.726 42.874
86.504 -49.275 42.881
86.505 -48.830 42.881
86.504 -48.380 42.883
86.504 -47.930 42.878
86.503 -47.480 42.881
86.505 -47.035 42.876
86.504 -46.580 42.901
86.503 -46.223 42.883
86.505 -46.131 42.896
86.500 -45.681 42.893
86.504 -45.235 42.878
86.504 -44.785 42.876
86.500 -44.335 42.893
86.512 -43.890 42.878
86.514 -43.440 42.878
86.506 -42.990 42.893
86.507 -42.545 42.876
86.514 -42.096 42.859
86.514 -41.645 42.858
86.507 -41.196 42.886
86.515 -40.749 42.871
86.512 -40.300 42.861
86.506 -39.850 42.886
86.506 -39.760 42.883
86.496 -39.395 42.924
86.510 -38.949 42.876
86.508 -38.504 42.873
86.510 -38.055 42.869
86.509 -37.608 42.859
86.509 -37.156 42.874
86.511 -36.705 42.869
86.511 -36.256 42.886
86.520 -35.810 42.857
86.527 -35.363 42.843
86.529 -34.915 42.857
86.520 -34.461 42.888
86.521 -34.011 42.888
86.529 -33.565 42.878
86.519 -33.115 42.893
86.525 -32.665 42.876
86.520 -32.216 42.908
86.529 -31.770 42.891
86.533 -31.320 42.871
86.531 -30.960 42.864
86.526 -30.870 42.884
86.526 -30.419 42.874
86.530 -29.974 42.871
86.526 -29.520 42.888
86.526 -29.070 42.908
86.534 -28.624 42.896
86.536 -28.175 42.906
86.534 -27.725 42.891
86.534 -27.279 42.891
86.540 -26.830 42.871
86.554 -26.563 42.847
86.540 -26.380 42.871
86.540 -25.935 42.871
86.549 -25.485 42.859
86.547 -25.035 42.876
86.548 -24.945 42.864
86.548 -24.855 42.862
86.546 -24.765 42.869
86.541 -24.584 42.891
86.542 -24.135 42.893
86.549 -23.685 42.873
86.541 -23.235 42.891
86.549 -22.785 42.873
86.550 -22.336 42.874
86.566 -22.164 42.846
86.561 -21.891 42.861
86.556 -21.440 42.883
86.551 -20.991 42.907
86.548 -20.544 42.916
86.548 -20.090 42.913
86.555 -19.649 42.881
86.562 -19.470 42.866
86.561 -19.199 42.866
86.554 -18.745 42.897
86.564 -18.300 42.881
86.563 -17.850 42.880
86.564 -17.400 42.878
86.563 -16.950 42.900
86.554 -16.500 42.913
86.563 -16.050 42.900
86.569 -15.605 42.882
86.570 -15.155 42.881
86.568 -14.705 42.878
86.569 -14.260 42.878
86.573 -13.809 42.898
86.574 -13.360 42.896
86.573 -12.910 42.898
86.569 -12.460 42.898
86.567 -12.014 42.903
86.569 -11.565 42.900
86.573 -11.115 42.883
86.569 -10.665 42.891
86.575 -10.215 42.881
86.575 -9.770 42.883
86.576 -9.320 42.881
88.862 -33.839 42.818
88.860 -33.748 42.822
88.859 -33.656 42.830
88.861 -33.568 42.820
86.582 -9.230 42.869
88.862 -33.389 42.818
86.584 -8.870 42.862
86.584 -8.420 42.862
86.583 -7.974 42.876
86.583 -7.524 42.867
86.584 -7.074 42.867
86.584 -6.625 42.878
86.584 -6.175 42.881
86.582 -5.726 42.883
86.584 -5.279 42.878
86.591 -4.829 42.867
86.594 -4.376 42.899
86.590 -3.931 42.884
86.594 -3.481 42.899
86.584 -3.034 42.919
86.588 -2.585 42.904
86.588 -2.135 42.904
86.589 -1.685 42.902
86.588 -1.235 42.902
86.588 -0.785 42.918
86.588 -0.340 42.920
86.587 0.110 42.924
86.589 0.560 42.919
86.599 1.010 42.904
86.599 1.459 42.904
86.598 1.905 42.909
86.598 2.355 42.909
86.599 2.805 42.904
86.598 3.255 42.907
88.864 -30.784 42.822
86.599 3.705 42.902
86.603 4.155 42.889
86.603 4.601 42.883
86.603 5.050 42.876
86.606 5.500 42.885
86.601 5.945 42.889
86.598 6.395 42.897
86.601 6.845 42.911
88.855 -29.973 42.844
86.601 7.291 42.911
86.599 7.740 42.894
86.594 8.190 42.928
86.604 8.640 42.904
86.604 9.095 42.904
86.604 9.544 42.907
86.608 9.990 42.889
86.609 10.440 42.887
86.611 10.889 42.907
86.616 11.335 42.880
86.612 11.785 42.907
86.609 12.235 42.889
86.611 12.685 42.908
86.606 13.130 42.916
86.607 13.580 42.924
86.609 14.030 42.909
86.614 14.484 42.889
86.616 14.929 42.913
86.609 15.379 42.913
86.609 15.829 42.924
86.609 16.274 42.927
86.600 16.723 42.949
86.607 17.174 42.929
86.609 17.620 42.931
86.609 18.070 42.931
86.613 18.520 42.917
86.619 18.965 42.929
86.619 19.415 42.929
86.619 19.865 42.929
86.619 20.315 42.929
86.615 20.765 42.935
86.619 21.211 42.929
86.616 21.663 42.917
86.614 22.114 42.917
86.613 22.559 42.931
86.622 23.010 42.912
86.614 23.459 42.931
86.621 23.910 42.916
86.621 24.360 42.916
86.624 24.805 42.909
86.614 25.255 42.929
86.620 25.709 42.894
86.615 26.155 42.941
86.609 26.600 42.959
86.611 27.050 42.944
86.620 27.500 42.927
86.609 27.945 42.944
86.610 28.395 42.947
86.620 28.845 42.929
86.624 28.934 42.925
86.611 29.290 42.949
86.617 29.744 42.937
86.610 30.191 42.964
86.618 30.639 42.954
86.613 30.817 42.959
86.613 31.090 42.944
86.619 31.540 42.947
86.611 31.990 42.967
86.613 32.440 42.962
86.618 32.885 42.954
86.610 33.335 42.967
86.610 33.784 42.969
86.618 34.230 42.969
86.619 34.680 42.952
86.614 35.130 42.979
86.615 35.575 42.983
86.611 36.025 42.983
86.609 36.474 42.987
86.609 36.920 43.002
86.613 37.370 42.999
86.620 37.821 42.978
86.624 38.275 42.969
86.624 38.725 42.964
88.865 -23.329 42.874
86.625 39.170 42.947
88.872 -23.150 42.842
88.874 -23.060 42.838
88.872 -22.970 42.842
86.617 39.620 42.964
86.619 40.066 42.987
86.616 40.512 42.982
86.621 40.695 42.959
86.622 40.964 42.976
86.626 41.415 42.984
86.625 41.860 42.989
86.621 42.306 43.001
86.623 42.755 43.007
86.624 43.205 42.991
86.624 43.656 42.977
86.624 44.106 42.989
86.632 44.554 42.974
86.634 45.001 42.987
86.634 45.455 42.969
86.632 45.900 42.993
86.626 46.347 43.015
86.626 46.436 43.018
86.626 46.526 43.018
86.632 46.794 43.009
86.631 47.245 43.019
86.631 47.695 43.022
86.635 48.140 43.004
86.632 48.591 43.018
86.636 49.041 43.001
86.635 49.485 43.007
88.876 -20.545 42.840
88.878 -20.455 42.838
88.878 -20.365 42.840
86.622 49.931 43.042
86.639 50.384 43.022
86.639 50.830 43.025
86.631 51.276 43.040
86.631 51.729 43.025
86.639 52.180 43.007
86.639 52.630 43.025
86.639 53.083 43.010
86.641 53.526 43.035
86.647 53.979 43.010
86.639 54.420 43.047
86.643 54.870 43.037
86.641 55.321 43.037
86.642 55.765 43.040
86.648 56.216 43.028
86.641 56.662 43.054
86.646 57.111 43.042
86.641 57.560 43.058
86.641 58.010 43.056
86.647 58.456 43.042
86.652 58.548 43.033
86.655 58.909 43.028
86.662 59.000 43.015
86.647 59.352 43.080
86.651 59.794 43.106
86.646 60.061 43.114
86.647 60.241 43.116
86.654 60.695 43.087
86.661 60.963 43.075
86.661 61.054 43.070
86.655 61.141 43.087
86.654 61.589 43.102
86.656 62.036 43.103
86.652 62.484 43.109
86.649 62.930 43.123
86.655 63.375 43.135
86.655 63.825 43.135
86.656 64.275 43.135
86.659 64.720 43.120
88.886 -16.774 42.841
86.661 65.171 43.118
86.659 65.620 43.135
86.663 65.883 43.148
86.670 66.065 43.135
86.379 -53.762 42.903
86.368 -46.487 42.923
86.377 -45.952 42.888
86.385 -43.893 42.865
86.387 -34.101 42.903
86.389 -34.011 42.900
86.454 -4.649 42.901
86.460 2.355 42.923
86.459 2.445 42.925
86.469 13.041 42.932
86.469 13.130 42.932
86.479 29.021 42.956
86.478 29.111 42.958
86.478 30.545 42.973
86.493 30.729 42.936
86.525 58.549 43.020
86.520 59.619 43.057
86.520 59.709 43.063
86.514 60.515 43.099
86.514 60.603 43.109
86.514 60.691 43.111
86.514 60.778 43.111
86.530 61.143 43.076
86.518 61.227 43.111
86.530 65.799 43.132
86.533 65.882 43.152
86.266 -64.270 42.912
86.268 -61.942 42.838
86.268 -61.853 42.835
86.249 -59.688 42.909
86.249 -59.063 42.907
86.251 -43.893 42.865
86.279 -30.243 42.847
86.269 -29.523 42.880
86.345 7.650 42.893
86.355 12.235 42.878
86.356 12.325 42.874
86.355 12.415 42.878
88.893 -12.911 42.841
86.355 20.226 42.931
86.357 29.114 42.932
86.366 30.730 42.932
88.893 -12.554 42.857
86.378 49.665 43.008
86.394 59.527 43.086
86.402 65.882 43.148
86.146 -65.529 42.890
86.144 -64.990 42.885
86.128 -43.624 42.860
86.124 -37.426 42.873
86.122 -35.716 42.900
86.152 -26.650 42.900
86.161 -26.024 42.873
86.152 -24.761 42.916
86.152 -20.000 42.943
86.164 -16.320 42.938
86.164 -16.229 42.940
86.164 -16.137 42.940
86.165 -16.047 42.935
86.179 -10.485 42.919
86.189 -2.855 42.938
86.210 0.920 42.887
86.205 7.115 42.944
86.204 7.204 42.946
86.204 7.291 42.946
86.204 7.380 42.946
86.204 7.470 42.944
86.211 7.650 42.914
86.221 12.055 42.912
86.221 12.145 42.910
86.224 19.955 42.929
86.223 20.045 42.931
86.219 36.472 43.010
86.225 37.460 42.986
86.262 59.262 43.071
86.261 59.616 43.090
86.261 59.706 43.090
86.253 60.241 43.111
86.275 60.697 43.070
86.275 60.784 43.070
86.261 61.319 43.089
86.271 62.484 43.094
86.014 -64.989 42.888
86.000 -43.623 42.865
86.000 -40.569 42.870
86.026 -26.830 42.882
86.027 -26.740 42.880
86.026 -26.290 42.880
86.034 -26.024 42.868
86.036 -24.494 42.882
86.037 -24.404 42.880
86.037 -24.318 42.880
88.905 -8.065 42.841
86.036 -23.868 42.880
86.027 -23.235 42.899
86.027 -23.145 42.899
86.027 -23.055 42.899
86.031 -20.090 42.920
86.031 -20.000 42.920
86.045 -18.303 42.870
86.046 -18.214 42.865
86.046 -18.123 42.865
86.048 -18.031 42.865
86.058 -14.350 42.885
86.056 -14.260 42.888
88.909 -6.899 42.839
86.058 -13.273 42.882
86.058 -13.184 42.882
86.058 -13.094 42.882
86.058 -13.004 42.882
86.052 -11.295 42.908
86.052 -11.205 42.904
86.071 -5.190 42.888
86.072 -2.495 42.885
86.083 0.920 42.887
86.091 16.723 42.930
88.908 -5.905 42.838
88.908 -5.815 42.838
86.101 18.788 42.897
86.107 25.618 42.897
86.105 30.819 42.938
86.106 30.909 42.938
86.105 32.795 42.940
86.104 43.745 43.033
86.121 53.704 43.027
86.125 60.244 43.101
86.126 60.332 43.107
86.141 61.142 43.077
86.125 61.227 43.106
86.137 63.289 43.104
85.900 -68.575 42.905
85.896 -68.126 42.918
85.891 -67.678 42.908
85.893 -67.225 42.922
85.891 -66.784 42.897
85.881 -66.334 42.905
85.885 -65.876 42.934
85.884 -65.434 42.922
85.888 -64.989 42.888
85.877 -64.717 42.905
85.878 -64.540 42.885
85.871 -64.090 42.905
85.871 -63.641 42.900
85.871 -63.191 42.900
85.866 -62.740 42.915
85.869 -62.651 42.908
85.876 -62.296 42.877
85.867 -61.841 42.897
85.861 -61.391 42.915
85.864 -60.949 42.885
85.865 -60.500 42.882
85.862 -60.319 42.892
85.852 -60.045 42.935
85.859 -59.595 42.922
85.856 -59.154 42.905
85.856 -58.705 42.885
85.856 -58.251 42.897
85.865 -57.809 42.882
85.864 -57.360 42.880
85.864 -56.909 42.882
85.857 -56.461 42.897
85.865 -56.014 42.876
85.857 -55.560 42.888
85.866 -55.115 42.877
85.865 -54.665 42.877
85.856 -54.215 42.895
85.856 -53.765 42.895
85.854 -53.314 42.900
85.864 -52.869 42.877
85.860 -52.595 42.905
85.864 -52.419 42.877
85.857 -51.966 42.893
85.862 -51.525 42.871
85.861 -51.071 42.890
85.861 -50.624 42.876
85.860 -50.175 42.877
85.861 -49.725 42.877
85.852 -49.275 42.895
85.859 -48.829 42.882
85.857 -48.380 42.882
85.854 -48.197 42.905
85.859 -47.930 42.877
85.855 -47.476 42.910
85.855 -47.030 42.912
85.860 -46.584 42.880
85.856 -46.131 42.908
85.854 -45.679 42.914
85.855 -45.231 42.912
85.855 -44.785 42.909
85.855 -44.335 42.908
85.853 -43.889 42.895
85.860 -43.439 42.894
85.860 -42.990 42.895
85.861 -42.545 42.890
85.861 -42.091 42.893
85.861 -41.640 42.895
85.864 -41.196 42.890
85.861 -40.746 42.890
85.864 -40.566 42.885
85.861 -40.296 42.893
85.856 -39.850 42.893
85.850 -39.395 42.928
85.861 -38.950 42.908
85.861 -38.501 42.905
85.866 -38.055 42.870
85.857 -37.601 42.905
85.861 -37.154 42.893
85.871 -36.705 42.870
85.862 -36.256 42.888
85.866 -35.805 42.908
85.867 -35.536 42.914
85.871 -35.356 42.890
85.874 -34.910 42.905
-90.261 61.088 44.329
85.874 -34.460 42.903
85.872 -34.015 42.870
85.874 -33.566 42.883
85.874 -33.116 42.883
85.882 -32.665 42.885
-90.256 60.548 44.347
85.877 -32.217 42.903
85.889 -31.770 42.857
85.881 -31.320 42.871
85.880 -30.870 42.888
85.881 -30.420 42.885
-90.234 60.006 44.380
85.881 -29.971 42.885
-90.247 59.835 44.326
85.874 -29.519 42.919
-90.239 59.651 44.360
85.872 -29.427 42.936
-90.253 59.477 44.316
85.881 -29.070 42.909
85.874 -28.621 42.938
85.889 -28.175 42.909
-90.238 59.121 44.322
85.886 -27.725 42.923
85.878 -27.274 42.940
85.891 -26.830 42.905
-90.250 58.760 44.348
-90.250 58.674 44.326
85.891 -26.380 42.903
85.896 -25.935 42.888
-90.234 58.397 44.382
85.892 -25.481 42.903
85.889 -25.031 42.919
85.896 -24.581 42.908
85.906 -24.140 42.870
85.899 -23.866 42.895
85.898 -23.685 42.885
85.896 -23.235 42.921
85.890 -22.785 42.921
85.896 -22.335 42.909
85.909 -21.890 42.890
85.902 -21.440 42.906
85.904 -20.991 42.904
85.902 -20.545 42.908
85.895 -20.090 42.940
85.901 -19.644 42.930
85.902 -19.195 42.925
85.909 -18.745 42.911
85.909 -18.301 42.888
85.912 -17.850 42.904
85.911 -17.400 42.923
85.903 -16.950 42.923
85.911 -16.500 42.925
85.912 -16.050 42.919
85.925 -15.605 42.877
85.922 -15.425 42.899
85.923 -15.335 42.901
85.923 -15.245 42.899
-90.268 55.913 44.271
85.926 -15.155 42.892
85.923 -14.975 42.914
85.926 -14.705 42.895
85.922 -14.260 42.908
85.926 -13.809 42.897
85.926 -13.360 42.893
85.927 -12.911 42.890
85.923 -12.640 42.919
85.918 -12.460 42.924
85.916 -12.014 42.930
85.909 -11.565 42.945
85.919 -11.115 42.922
85.924 -10.665 42.915
85.918 -10.215 42.910
-90.262 54.566 44.293
85.932 -9.770 42.890
-90.282 54.394 44.255
85.931 -9.320 42.893
85.931 -8.870 42.895
85.931 -8.420 42.912
85.931 -7.975 42.895
85.931 -7.520 42.912
85.931 -7.070 42.912
85.931 -6.625 42.915
-90.254 53.670 44.325
85.936 -6.175 42.900
85.933 -5.726 42.915
85.936 -5.280 42.895
85.944 -4.830 42.882
85.941 -4.380 42.912
85.938 -3.935 42.900
85.941 -3.485 42.912
85.939 -3.035 42.903
85.939 -2.585 42.897
85.939 -2.135 42.885
85.936 -1.685 42.915
85.941 -1.235 42.897
-90.266 52.512 44.287
85.936 -0.785 42.917
85.938 -0.340 42.915
85.936 0.110 42.932
85.947 0.560 42.909
85.948 1.010 42.926
85.946 1.459 42.932
85.952 1.905 42.920
85.954 2.355 42.917
85.955 2.805 42.915
85.951 3.255 42.897
85.951 3.705 42.900
85.951 4.155 42.900
85.951 4.601 42.900
85.948 5.050 42.929
85.959 5.320 42.907
85.957 5.500 42.928
85.952 5.945 42.933
85.955 6.395 42.907
85.952 6.845 42.929
85.952 7.291 42.929
85.951 7.740 42.922
85.951 8.190 42.933
85.951 8.640 42.933
85.951 9.090 42.933
85.951 9.540 42.935
85.959 9.989 42.919
85.957 10.440 42.903
85.966 10.889 42.897
85.964 11.335 42.905
85.964 11.785 42.900
85.966 12.235 42.895
85.961 12.685 42.912
85.956 13.130 42.938
85.956 13.580 42.938
85.961 14.030 42.928
85.959 14.480 42.935
85.967 14.926 42.918
85.961 15.375 42.935
85.961 15.825 42.938
85.960 16.271 42.938
85.960 16.721 42.940
85.951 17.170 42.958
85.952 17.620 42.953
85.960 18.070 42.941
85.961 18.520 42.927
85.963 18.965 42.922
85.964 19.415 42.934
85.966 19.865 42.905
85.966 20.319 42.905
85.967 20.769 42.908
85.963 21.211 42.938
85.961 21.660 42.958
85.961 22.110 42.958
85.955 22.556 42.956
85.972 23.006 42.936
85.971 23.455 42.940
85.971 23.910 42.938
85.961 24.355 42.963
85.963 24.805 42.955
85.971 25.255 42.923
85.969 25.706 42.908
85.971 26.155 42.923
85.967 26.600 42.925
85.968 27.052 42.917
85.966 27.499 42.958
-90.287 46.618 44.287
85.966 27.945 42.960
85.965 28.395 42.963
85.959 28.841 42.972
85.957 29.290 42.976
85.959 29.740 42.974
85.965 30.191 42.962
85.957 30.635 42.978
85.970 31.087 42.958
85.966 31.535 42.965
85.975 31.990 42.947
85.975 32.440 42.947
85.974 32.795 42.947
85.967 32.885 42.963
85.966 33.331 42.976
85.967 33.781 42.978
85.962 34.227 42.991
85.967 34.680 42.976
85.976 35.130 42.963
85.967 35.575 42.976
85.966 36.025 43.000
85.960 36.471 43.013
85.964 36.919 43.005
85.966 37.370 43.000
85.968 37.821 42.979
85.981 38.275 42.963
85.971 38.721 42.982
85.971 39.166 42.982
85.975 39.615 42.996
85.971 40.065 42.985
85.966 40.510 42.985
85.966 40.960 42.985
85.976 41.415 42.965
85.976 41.860 42.967
85.976 42.310 42.985
85.979 42.756 42.999
85.971 43.205 43.018
85.973 43.655 43.020
85.971 44.104 43.020
85.973 44.550 43.030
85.981 45.005 43.000
85.982 45.451 42.996
85.982 45.900 42.998
85.981 46.350 43.000
85.979 46.791 43.022
85.979 47.241 43.035
85.990 47.695 43.002
85.989 48.140 43.020
85.980 48.585 43.040
85.985 49.036 43.035
85.989 49.484 43.022
85.988 49.934 43.025
85.981 50.385 43.020
85.986 50.826 43.037
85.988 51.277 43.033
85.986 51.726 43.037
85.987 52.179 43.020
85.987 52.630 43.018
-90.321 41.438 44.218
-90.321 41.349 44.216
85.981 53.079 43.042
85.983 53.431 43.066
85.981 53.524 43.046
85.990 53.705 43.025
85.990 53.974 43.037
85.990 54.421 43.037
85.991 54.867 43.049
85.991 55.320 43.022
85.994 55.766 43.020
85.982 56.211 43.053
85.994 56.660 43.072
85.999 57.110 43.040
86.000 57.561 43.037
85.999 58.010 43.044
85.994 58.455 43.049
85.999 58.905 43.058
85.999 59.351 43.080
86.009 59.799 43.053
86.007 60.159 43.057
85.996 60.243 43.098
86.001 60.428 43.070
85.993 60.690 43.113
86.006 61.140 43.097
85.990 61.226 43.126
85.989 61.585 43.130
86.004 62.031 43.118
85.999 62.481 43.128
86.004 62.930 43.120
85.997 63.375 43.130
85.999 63.821 43.152
86.005 64.274 43.140
86.010 64.716 43.150
-90.308 38.390 44.287
86.009 65.165 43.162
86.014 65.619 43.138
86.028 66.065 43.123
85.754 -67.223 42.941
85.731 -46.763 42.885
85.743 -41.019 42.865
85.741 -40.929 42.865
85.743 -40.479 42.862
85.741 -40.389 42.865
85.772 -23.595 42.880
85.832 5.320 42.907
85.844 29.560 42.957
85.850 34.860 42.952
85.842 35.845 42.974
85.842 35.935 42.978
85.848 42.849 42.994
85.858 45.454 42.978
85.857 45.543 42.976
85.857 45.632 42.979
85.851 53.428 43.078
85.873 57.563 43.029
85.873 57.653 43.032
85.876 59.619 43.051
85.875 59.709 43.051
85.881 60.159 43.066
85.879 60.245 43.084
85.874 60.428 43.070
85.619 -66.866 42.944
85.586 -59.587 42.967
85.588 -59.235 42.948
85.591 -48.557 42.905
85.615 -36.616 42.856
85.607 -34.730 42.916
85.632 -26.023 42.897
85.629 -25.391 42.931
85.628 -25.300 42.938
85.641 -20.090 42.943
85.673 -13.093 42.885
85.674 -6.715 42.941
85.673 -6.625 42.939
85.688 1.725 42.945
85.699 14.570 42.950
85.717 34.860 42.954
85.713 43.295 43.030
85.715 43.385 43.028
85.728 45.450 43.001
85.711 46.432 43.044
85.719 48.316 43.046
85.739 55.768 43.010
85.743 59.526 43.088
85.741 59.618 43.068
85.741 59.789 43.116
85.741 59.881 43.111
85.751 61.319 43.089
85.751 61.409 43.089
85.749 61.498 43.093
85.744 62.663 43.108
85.478 -36.706 42.881
85.488 -36.618 42.851
85.482 -34.730 42.899
-90.325 32.941 44.262
85.491 -34.284 42.877
85.532 -14.975 42.923
85.548 -12.643 42.887
-90.334 32.585 44.264
85.547 -12.553 42.884
85.552 -1.775 42.941
85.583 14.660 42.913
85.579 16.455 42.912
85.569 18.965 42.972
85.583 23.095 42.958
85.581 27.499 42.970
85.582 36.114 42.993
85.596 42.039 42.976
85.597 42.128 42.978
85.596 44.824 42.998
85.598 45.184 42.998
85.611 58.452 43.065
-90.342 31.331 44.252
85.614 59.788 43.123
85.616 60.147 43.125
85.619 60.519 43.067
85.621 60.695 43.081
85.620 60.783 43.072
85.604 61.046 43.124
85.605 61.136 43.124
85.613 65.436 43.162
85.631 65.799 43.125
85.368 -67.138 42.906
85.345 -62.562 42.906
85.341 -40.745 42.914
85.343 -40.656 42.912
85.339 -39.756 42.935
85.344 -36.705 42.885
85.356 -36.616 42.858
85.357 -34.191 42.909
85.364 -31.676 42.910
85.355 -29.156 42.948
85.364 -28.351 42.941
85.359 -28.171 42.951
85.421 -8.153 42.900
85.425 -1.775 42.943
85.445 14.570 42.937
85.442 16.630 42.952
85.449 23.095 42.969
85.455 27.499 42.957
85.454 42.755 43.029
85.452 47.056 43.066
85.451 47.146 43.068
85.461 49.477 43.065
85.462 50.107 43.063
85.463 50.196 43.066
85.461 50.286 43.068
85.462 50.377 43.065
85.474 57.373 43.083
85.481 59.528 43.066
85.481 59.791 43.107
85.482 59.975 43.083
85.481 60.147 43.124
-90.349 27.667 44.248
85.484 60.238 43.117
85.483 60.518 43.063
85.485 60.692 43.093
85.244 -68.573 42.923
85.245 -68.129 42.917
85.236 -67.675 42.932
85.235 -67.225 42.918
85.221 -66.774 42.957
85.226 -66.326 42.950
85.226 -65.881 42.916
85.224 -65.435 42.915
85.225 -64.989 42.897
85.221 -64.532 42.924
85.219 -64.084 42.935
85.211 -63.631 42.945
-90.368 26.240 44.217
85.211 -63.189 42.914
85.215 -62.741 42.910
85.221 -62.298 42.882
85.221 -61.848 42.882
85.214 -61.399 42.880
85.215 -60.950 42.893
85.209 -60.496 42.912
85.210 -60.045 42.928
85.200 -59.590 42.950
85.202 -59.146 42.931
85.209 -58.700 42.915
85.209 -58.246 42.928
85.201 -57.800 42.945
85.213 -57.355 42.899
85.210 -56.902 42.921
85.208 -56.459 42.912
85.210 -56.006 42.906
85.208 -55.561 42.890
85.205 -55.114 42.897
85.214 -54.661 42.906
85.206 -54.215 42.897
85.213 -53.770 42.880
85.206 -53.319 42.895
85.205 -52.870 42.895
85.209 -52.420 42.910
85.206 -51.970 42.895
85.201 -51.516 42.923
-90.357 23.735 44.257
85.215 -51.074 42.875
85.214 -50.621 42.890
85.215 -50.174 42.890
85.214 -49.725 42.890
85.223 -49.454 42.877
85.220 -49.363 42.885
85.215 -49.271 42.905
85.207 -48.826 42.903
85.214 -48.379 42.893
85.209 -47.925 42.921
85.208 -47.479 42.926
85.208 -47.029 42.930
85.205 -46.581 42.908
85.211 -46.136 42.888
85.208 -45.685 42.895
85.209 -45.235 42.892
85.205 -44.784 42.909
85.206 -44.336 42.908
85.209 -43.888 42.897
85.209 -43.439 42.893
85.209 -42.989 42.893
85.206 -42.540 42.919
85.209 -42.090 42.905
85.212 -41.641 42.906
85.218 -41.195 42.892
85.218 -40.745 42.896
85.219 -40.295 42.892
85.219 -39.849 42.906
85.209 -39.394 42.944
85.199 -38.940 42.963
85.204 -38.499 42.949
85.213 -38.050 42.923
85.214 -37.600 42.908
85.220 -37.244 42.884
85.215 -37.154 42.891
85.216 -36.705 42.888
85.231 -36.435 42.862
-90.372 20.337 44.268
85.217 -36.255 42.901
85.223 -35.805 42.894
85.223 -35.355 42.906
85.223 -35.265 42.903
85.220 -34.910 42.925
-90.387 19.800 44.229
85.226 -34.460 42.906
85.234 -34.010 42.892
85.241 -33.565 42.877
85.234 -33.115 42.890
-90.363 19.353 44.287
85.233 -32.664 42.909
85.238 -32.219 42.890
85.235 -31.769 42.892
85.234 -31.315 42.905
85.239 -30.869 42.888
85.234 -30.417 42.893
85.239 -29.970 42.888
85.236 -29.519 42.921
85.232 -29.066 42.943
85.233 -28.619 42.943
85.238 -28.174 42.928
85.239 -27.725 42.918
85.244 -27.279 42.907
85.246 -26.829 42.904
85.246 -26.379 42.904
85.247 -25.931 42.901
85.253 -25.480 42.910
85.249 -25.030 42.923
85.253 -24.580 42.912
85.255 -24.135 42.890
85.256 -23.685 42.901
85.258 -23.235 42.923
85.250 -22.785 42.945
85.248 -22.332 42.954
85.258 -21.889 42.930
85.260 -21.440 42.912
85.261 -20.991 42.908
85.268 -20.544 42.908
85.264 -20.090 42.925
85.264 -19.644 42.945
85.260 -19.195 42.943
85.254 -18.835 42.949
85.254 -18.745 42.949
85.268 -18.300 42.928
85.270 -17.850 42.920
85.262 -17.670 42.935
-90.393 16.046 44.214
85.269 -17.400 42.925
85.270 -16.950 42.921
85.269 -16.500 42.925
85.270 -16.050 42.923
85.276 -15.605 42.897
85.280 -15.155 42.908
85.279 -14.705 42.908
85.284 -14.260 42.890
85.279 -13.805 42.925
85.279 -13.356 42.923
85.280 -12.910 42.909
85.280 -12.460 42.926
85.277 -12.014 42.938
85.276 -11.565 42.940
85.280 -11.115 42.926
85.282 -10.665 42.925
85.283 -10.215 42.926
85.288 -9.770 42.909
85.291 -9.320 42.908
-90.394 14.256 44.229
85.289 -8.870 42.910
85.291 -8.420 42.908
85.285 -7.970 42.921
85.289 -7.520 42.910
85.290 -7.070 42.912
85.293 -6.625 42.924
85.294 -6.175 42.922
85.291 -5.726 42.910
85.295 -5.280 42.922
85.294 -4.830 42.924
85.296 -4.380 42.920
85.302 -3.935 42.901
85.301 -3.485 42.885
85.295 -3.035 42.897
85.296 -2.585 42.906
85.298 -2.135 42.928
85.300 -1.685 42.930
85.299 -1.235 42.932
85.294 -0.785 42.936
85.293 -0.340 42.954
85.286 0.110 42.964
85.294 0.560 42.950
-90.389 12.201 44.272
85.296 1.010 42.946
85.305 1.459 42.929
85.305 1.905 42.915
85.306 2.355 42.913
85.305 2.805 42.915
85.305 3.255 42.917
85.310 3.705 42.898
85.308 4.153 42.923
85.306 4.600 42.929
85.304 5.050 42.951
85.305 5.500 42.951
85.311 5.945 42.916
85.314 6.395 42.929
85.316 6.845 42.929
85.316 7.291 42.929
85.306 7.740 42.948
85.303 8.190 42.946
85.309 8.640 42.936
85.310 9.090 42.931
85.309 9.540 42.938
85.309 9.985 42.951
85.317 10.439 42.917
85.316 10.889 42.916
85.316 11.335 42.919
85.316 11.785 42.916
85.316 12.235 42.917
85.315 12.685 42.922
85.320 13.130 42.936
85.317 13.580 42.923
85.316 14.030 42.921
85.312 14.480 42.933
85.327 14.925 42.933
-90.402 9.251 44.288
-90.409 9.164 44.262
85.316 15.375 42.948
-90.403 8.985 44.257
-90.408 8.895 44.236
85.315 15.825 42.953
85.314 16.270 42.952
85.316 16.720 42.953
85.315 17.170 42.951
85.315 17.620 42.953
85.315 18.070 42.956
85.315 18.520 42.953
85.315 18.965 42.958
85.325 19.415 42.936
-90.416 8.000 44.231
85.323 19.865 42.936
85.323 20.315 42.938
85.325 20.765 42.934
85.324 21.211 42.936
85.323 21.660 42.941
85.314 22.110 42.958
85.314 22.555 42.968
85.313 23.005 42.973
85.329 23.455 42.936
85.323 23.906 42.951
85.321 24.355 42.956
85.321 24.805 42.956
85.319 25.254 42.958
85.322 25.705 42.953
85.328 26.155 42.938
85.325 26.600 42.926
85.321 27.050 42.953
85.329 27.499 42.951
85.320 27.945 42.973
85.319 28.395 42.978
85.320 28.841 42.978
-90.404 6.030 44.287
85.320 29.290 42.976
85.321 29.740 42.974
85.320 30.189 42.976
85.320 30.635 42.976
85.328 31.085 42.966
85.324 31.535 42.974
85.324 31.989 42.963
85.324 32.439 42.963
85.324 32.884 42.963
85.324 33.334 42.963
85.324 33.784 42.963
85.315 34.229 42.981
85.324 34.679 42.976
85.324 35.129 42.978
85.325 35.575 42.976
85.326 36.024 42.998
85.329 36.474 42.996
85.320 36.915 43.016
85.320 37.365 43.018
-90.412 4.245 44.287
85.320 37.815 43.031
-90.423 4.066 44.247
85.326 37.998 43.006
85.328 38.269 42.999
85.333 38.720 42.984
85.332 38.988 42.970
85.333 39.077 42.972
85.330 39.162 43.006
85.329 39.615 43.001
85.339 40.065 42.994
85.332 40.510 42.998
-90.412 3.173 44.303
85.324 40.959 43.018
85.325 41.409 43.016
85.334 41.855 42.998
85.332 42.304 43.018
85.332 42.755 43.016
85.334 43.205 42.998
85.332 43.655 43.003
85.332 44.104 43.037
85.324 44.549 43.039
85.339 45.000 43.018
85.338 45.446 43.018
85.339 45.899 43.001
85.330 46.345 43.033
85.329 46.791 43.037
85.334 46.970 43.028
85.329 47.241 43.035
85.329 47.690 43.049
85.346 48.050 43.008
85.341 48.139 43.016
85.339 48.585 43.037
85.338 49.034 43.040
85.332 49.479 43.051
85.331 49.930 43.049
85.338 50.379 43.042
85.339 50.824 43.053
85.345 51.278 43.025
85.349 51.459 43.020
85.355 51.549 43.011
85.350 51.726 43.039
85.344 52.175 43.041
85.346 52.268 43.028
85.346 52.357 43.028
85.335 52.624 43.059
85.336 53.075 43.055
85.341 53.523 43.050
85.343 53.974 43.043
85.349 54.064 43.033
85.344 54.419 43.045
85.342 54.868 43.048
85.339 55.312 43.084
85.354 55.764 43.041
85.344 56.213 43.045
85.349 56.393 43.035
85.344 56.660 43.062
85.349 57.110 43.054
85.355 57.289 43.049
85.349 57.377 43.063
85.348 57.467 43.064
85.349 57.558 43.062
85.349 57.647 43.064
85.344 58.000 43.096
85.344 58.446 43.096
85.353 58.899 43.094
85.353 59.350 43.083
85.354 59.794 43.094
85.357 59.978 43.070
85.354 60.244 43.082
85.363 60.695 43.077
-90.436 -2.101 44.258
85.366 60.783 43.065
85.349 61.135 43.117
85.350 61.586 43.115
85.354 61.678 43.112
85.348 62.028 43.144
85.348 62.117 43.146
85.353 62.474 43.156
85.358 62.568 43.142
85.355 62.924 43.156
85.349 63.368 43.162
85.349 63.815 43.172
85.351 64.270 43.154
85.359 64.715 43.154
85.363 65.079 43.143
85.363 65.169 43.141
85.360 65.615 43.166
85.369 66.060 43.169
85.084 -50.261 42.900
85.086 -36.971 42.916
85.103 -29.790 42.928
85.103 -29.066 42.950
85.166 0.560 42.942
85.194 39.702 43.025
85.194 39.792 43.025
85.194 44.367 43.042
85.200 45.533 43.033
85.199 45.625 43.029
85.200 45.716 43.022
85.208 51.901 43.076
85.207 51.991 43.076
85.207 52.081 43.066
85.208 52.262 43.059
85.208 52.352 43.059
85.209 55.492 43.081
85.212 56.836 43.083
85.214 56.924 43.078
85.218 57.644 43.075
85.219 58.808 43.099
85.215 58.894 43.117
85.214 58.982 43.121
85.215 59.073 43.119
85.228 59.975 43.089
85.223 60.063 43.097
85.236 60.697 43.065
84.966 -66.504 42.958
84.951 -64.350 42.963
84.952 -62.646 42.943
84.952 -62.557 42.939
84.957 -50.264 42.885
84.956 -45.238 42.877
84.959 -36.970 42.917
84.981 -30.776 42.902
84.988 -30.689 42.873
84.976 -28.706 42.950
85.077 45.629 43.002
85.089 52.899 43.027
85.089 54.958 43.045
85.097 59.708 43.069
85.099 59.798 43.064
85.099 60.160 43.046
85.104 60.252 43.036
85.111 60.605 43.084
85.114 60.873 43.072
85.092 61.046 43.123
85.104 61.944 43.118
85.101 64.361 43.144
85.100 64.717 43.144
85.110 65.348 43.142
84.846 -65.794 42.892
84.824 -45.236 42.893
84.813 -38.405 42.987
84.938 10.620 42.882
84.936 32.345 43.007
84.940 53.786 43.095
84.967 60.069 43.044
84.967 60.159 43.044
84.960 61.045 43.125
84.961 61.132 43.138
84.955 61.219 43.150
84.953 61.307 43.154
84.953 61.397 43.156
84.973 61.944 43.115
84.952 62.201 43.178
84.967 65.344 43.166
84.967 65.432 43.176
84.722 -67.854 42.938
84.690 -57.893 42.918
84.699 -48.199 42.882
84.698 -45.236 42.893
84.703 -38.140 42.917
84.709 -34.009 42.915
84.746 -19.731 42.952
84.758 -11.835 42.955
84.757 -11.745 42.958
84.761 -6.625 42.958
84.787 -2.044 42.932
84.794 7.025 42.960
84.825 48.498 43.027
84.832 59.524 43.081
84.832 59.613 43.094
84.848 60.609 43.043
84.842 60.697 43.063
84.846 61.049 43.086
84.839 61.138 43.101
84.836 61.228 43.106
84.839 61.318 43.103
84.839 62.120 43.122
84.834 62.206 43.147
84.841 63.015 43.149
84.838 63.197 43.139
84.835 63.728 43.161
84.851 65.618 43.142
84.853 65.709 43.137
84.853 65.798 43.137
84.855 65.884 43.134
84.861 65.974 43.123
84.863 66.064 43.120
84.590 -68.566 42.950
84.589 -68.119 42.955
84.589 -67.674 42.935
84.589 -67.224 42.938
84.588 -66.779 42.940
84.583 -66.329 42.938
84.581 -65.880 42.915
84.581 -65.435 42.916
84.579 -64.986 42.912
84.576 -64.531 42.928
84.570 -64.089 42.919
84.566 -63.635 42.930
84.564 -63.186 42.928
84.560 -62.740 42.915
84.569 -62.298 42.882
84.560 -61.845 42.895
84.561 -61.395 42.915
84.564 -60.945 42.926
84.556 -60.495 42.930
84.554 -60.040 42.950
84.555 -59.589 42.952
-90.445 -14.525 44.336
84.555 -59.145 42.950
84.561 -58.699 42.917
84.561 -58.250 42.908
84.567 -57.805 42.899
84.569 -57.356 42.894
84.569 -56.906 42.894
84.561 -56.459 42.908
84.567 -56.009 42.897
84.569 -55.559 42.897
84.569 -55.115 42.895
84.563 -54.662 42.904
84.561 -54.211 42.908
84.563 -53.766 42.905
84.562 -53.315 42.912
84.564 -52.865 42.925
84.568 -52.418 42.913
-90.451 -16.045 44.345
-90.446 -16.135 44.362
84.564 -51.966 42.921
84.561 -51.519 42.914
84.564 -51.066 42.923
84.564 -50.615 42.925
84.557 -50.170 42.919
84.565 -49.720 42.925
84.566 -49.270 42.923
84.564 -48.824 42.926
84.569 -48.376 42.909
84.563 -47.926 42.907
84.570 -47.480 42.895
84.565 -47.030 42.919
84.564 -46.580 42.909
84.565 -46.135 42.905
84.566 -45.685 42.905
84.573 -45.238 42.877
84.559 -44.784 42.907
84.563 -44.693 42.912
84.566 -44.339 42.893
84.559 -43.885 42.926
84.565 -43.436 42.908
84.565 -42.985 42.910
84.565 -42.540 42.910
84.566 -42.091 42.901
84.573 -41.644 42.892
84.575 -41.199 42.870
84.574 -40.745 42.892
84.576 -40.296 42.888
84.567 -39.845 42.938
84.566 -39.395 42.943
84.558 -38.940 42.975
84.556 -38.495 42.978
84.573 -38.139 42.929
84.571 -38.050 42.928
84.579 -37.601 42.906
84.576 -37.151 42.918
84.581 -36.704 42.889
84.580 -36.255 42.890
84.579 -35.805 42.908
84.575 -35.354 42.925
84.570 -34.906 42.943
84.571 -34.455 42.947
84.579 -34.009 42.925
84.586 -33.564 42.910
84.591 -33.111 42.918
84.591 -32.661 42.918
84.593 -32.219 42.892
84.594 -31.765 42.907
84.594 -31.315 42.907
84.596 -30.865 42.907
84.604 -30.419 42.888
-90.444 -20.781 44.382
84.603 -29.970 42.892
84.600 -29.520 42.920
84.597 -29.066 42.935
84.596 -28.620 42.938
84.588 -28.170 42.952
84.595 -27.720 42.940
84.600 -27.278 42.909
84.607 -26.830 42.890
84.609 -26.379 42.904
84.606 -25.931 42.903
84.606 -25.480 42.905
84.609 -25.030 42.920
84.613 -24.580 42.908
84.610 -24.135 42.925
84.610 -23.685 42.925
84.609 -23.235 42.932
84.610 -22.785 42.945
84.610 -22.334 42.947
84.610 -21.885 42.956
84.610 -21.435 42.947
84.619 -20.989 42.928
84.621 -20.541 42.920
84.629 -20.090 42.928
84.628 -19.644 42.928
84.624 -19.195 42.928
84.625 -18.745 42.925
84.624 -18.300 42.923
84.625 -17.850 42.940
84.626 -17.400 42.925
-90.468 -23.463 44.354
84.626 -16.950 42.943
84.631 -16.500 42.932
84.626 -16.046 42.943
84.625 -15.600 42.945
84.621 -15.150 42.963
84.635 -14.704 42.924
84.640 -14.259 42.911
84.636 -13.805 42.923
84.631 -13.356 42.943
84.639 -12.910 42.926
84.633 -12.460 42.940
84.639 -12.014 42.940
84.632 -11.565 42.943
84.631 -11.115 42.945
84.631 -10.665 42.963
84.627 -10.215 42.963
84.632 -9.769 42.950
84.634 -9.319 42.947
84.637 -9.047 42.954
84.645 -8.870 42.925
84.646 -8.420 42.923
84.653 -7.974 42.893
84.646 -7.520 42.923
84.644 -7.070 42.928
84.636 -6.625 42.955
84.646 -6.175 42.923
84.646 -5.726 42.923
84.645 -5.280 42.925
84.649 -4.830 42.912
84.645 -4.380 42.925
84.655 -3.935 42.925
84.660 -3.485 42.908
84.655 -3.035 42.930
84.656 -2.585 42.928
84.655 -2.134 42.928
84.656 -1.685 42.930
84.655 -1.235 42.947
84.643 -0.785 42.963
84.649 -0.340 42.954
84.650 0.110 42.952
84.643 0.560 42.963
84.656 0.920 42.940
84.650 1.010 42.951
84.665 1.459 42.919
84.660 1.905 42.930
84.665 2.355 42.919
84.665 2.805 42.919
84.661 3.254 42.928
84.664 3.704 42.917
84.662 4.151 42.928
84.661 4.600 42.947
84.660 5.050 42.952
84.668 5.500 42.931
84.662 5.945 42.930
84.666 6.395 42.947
-90.445 -28.461 44.429
84.665 6.845 42.952
84.666 7.025 42.960
84.669 7.291 42.935
84.665 7.740 42.965
84.665 8.190 42.950
84.664 8.640 42.952
84.664 9.090 42.952
84.666 9.540 42.943
84.666 9.985 42.943
84.671 10.439 42.917
84.676 10.889 42.903
84.673 11.335 42.928
84.674 11.785 42.923
-90.463 -29.719 44.376
84.671 12.235 42.928
84.676 12.685 42.921
84.675 13.130 42.917
84.671 13.580 42.935
-90.463 -30.164 44.391
84.673 14.030 42.935
-90.454 -30.339 44.423
84.670 14.480 42.952
84.662 14.925 42.964
84.679 15.375 42.935
84.673 15.825 42.952
84.670 16.270 42.970
84.670 16.720 42.982
84.670 17.170 42.968
84.673 17.617 42.967
84.680 18.070 42.938
84.680 18.520 42.935
84.673 18.965 42.967
84.671 19.414 42.974
84.675 19.865 42.960
-90.457 -31.589 44.425
84.674 20.315 42.960
84.675 20.765 42.955
84.675 21.211 42.955
84.675 21.660 42.940
84.675 22.110 42.952
84.675 22.555 42.955
84.675 23.005 42.960
84.678 23.455 42.984
84.684 23.905 42.958
84.684 24.355 42.958
84.677 24.801 42.970
84.683 25.253 42.963
84.683 25.704 42.958
84.684 26.155 42.940
84.676 26.600 42.970
-90.469 -33.020 44.392
-90.464 -33.109 44.416
84.685 27.050 42.950
84.684 27.499 42.955
84.685 27.945 42.958
84.685 28.395 42.958
84.685 28.841 42.956
84.684 29.290 42.962
84.683 29.740 42.966
84.683 30.189 42.978
84.674 30.635 42.995
84.674 31.085 42.995
84.679 31.535 42.978
84.680 31.985 42.978
84.676 32.435 43.010
84.679 32.880 42.982
84.681 33.330 42.978
-90.469 -34.538 44.410
84.676 33.780 42.998
84.676 34.225 42.998
84.674 34.675 43.013
84.679 35.125 43.000
-90.456 -34.979 44.468
84.680 35.571 43.013
84.679 36.021 43.013
84.681 36.474 42.998
84.681 36.920 42.995
84.671 37.365 43.030
84.673 37.815 43.033
84.671 38.265 43.033
84.676 38.719 43.000
84.685 39.165 42.993
-90.478 -35.879 44.408
84.677 39.615 42.993
84.684 40.065 42.996
84.685 40.510 42.995
84.680 40.955 43.037
84.673 41.405 43.046
84.680 41.851 43.033
84.689 42.304 43.018
84.689 42.755 43.015
84.688 43.205 43.022
84.688 43.655 43.020
84.688 44.104 43.018
84.689 44.550 43.020
84.678 44.997 43.044
84.686 45.445 43.032
84.695 45.896 43.013
-90.461 -37.304 44.451
84.686 46.345 43.033
84.686 46.790 43.046
84.686 47.240 43.037
84.694 47.694 43.018
84.686 48.135 43.044
84.691 48.494 43.046
84.689 48.582 43.059
84.691 49.034 43.051
84.689 49.479 43.053
-90.463 -38.196 44.466
84.688 49.746 43.061
84.691 49.929 43.049
84.686 50.376 43.080
84.687 50.821 43.066
84.694 51.271 43.068
84.692 51.725 43.048
84.691 52.175 43.050
84.696 52.621 43.066
84.694 53.074 43.070
84.686 53.516 43.088
84.689 53.696 43.092
84.696 53.970 43.070
84.696 54.416 43.070
84.701 54.866 43.051
84.698 55.315 43.065
84.702 55.761 43.049
84.700 55.939 43.071
84.698 56.030 43.066
84.698 56.209 43.068
84.698 56.297 43.077
84.699 56.387 43.075
84.700 56.660 43.070
84.690 57.101 43.088
84.700 57.555 43.070
84.702 58.006 43.068
84.702 58.357 43.084
84.702 58.446 43.097
84.701 58.900 43.088
84.701 59.350 43.088
84.709 59.793 43.094
84.708 60.062 43.094
84.707 60.151 43.099
84.709 60.242 43.094
84.716 60.519 43.043
84.703 60.692 43.094
84.699 60.777 43.111
84.706 61.137 43.102
84.714 61.319 43.089
84.714 61.408 43.101
84.704 61.492 43.138
84.697 61.577 43.154
84.694 61.667 43.156
84.699 62.026 43.147
84.702 62.472 43.159
84.703 62.921 43.161
84.697 63.366 43.178
84.698 63.814 43.185
84.698 63.902 43.195
84.699 63.992 43.195
84.706 64.265 43.165
84.705 64.714 43.166
84.700 64.979 43.188
84.706 65.165 43.165
84.711 65.613 43.173
84.728 66.062 43.140
84.431 -61.303 42.936
84.446 -45.238 42.880
84.506 -9.046 42.969
84.518 -8.959 42.932
84.531 -2.045 42.903
84.559 28.305 42.943
84.563 50.734 43.041
84.563 50.824 43.041
84.563 50.914 43.046
84.579 55.942 43.048
84.577 57.919 43.045
84.568 58.092 43.080
-90.479 -44.269 44.482
84.578 58.362 43.060
84.574 59.517 43.132
84.574 59.606 43.136
84.575 59.697 43.131
84.587 60.331 43.099
84.585 60.515 43.075
-90.474 -44.891 44.521
84.578 61.765 43.116
84.576 61.857 43.110
84.569 61.943 43.124
84.566 62.022 43.159
84.578 62.388 43.139
84.581 64.541 43.144
84.337 -67.768 42.910
84.337 -67.588 42.910
84.302 -56.452 42.939
84.296 -51.786 42.936
-90.489 -45.879 44.479
84.325 -33.739 42.931
84.372 -12.460 42.952
84.378 -11.115 42.934
84.372 -10.935 42.971
84.373 -9.046 42.973
84.387 -8.959 42.934
84.396 -2.223 42.940
84.408 7.025 42.958
84.412 11.425 42.940
84.436 52.173 43.068
84.446 59.432 43.114
84.446 60.068 43.063
84.448 60.158 43.060
84.449 60.328 43.111
84.445 60.598 43.126
84.447 60.690 43.116
84.457 60.964 43.056
84.444 61.220 43.143
84.440 61.309 43.158
84.452 61.403 43.136
84.434 61.937 43.157
-90.474 -47.835 44.539
84.433 62.021 43.176
84.438 63.722 43.197
84.439 64.172 43.193
84.440 64.262 43.190
84.204 -67.229 42.918
84.203 -67.139 42.921
84.173 -60.768 42.900
84.172 -60.678 42.900
84.181 -57.449 42.878
